ply
format ascii 1.0
comment Created by CloudCompare v2.12.0 (Kyiv)
comment Created 2023-05-18T22:35:17
obj_info Generated by CloudCompare!
element vertex 740
property float x
property float y
property float z
property float nx
property float ny
property float nz
end_header
-693.908081 -54.222050 3642.781738 0.383678 0.869771 -0.310305 
-699.591248 -50.258045 3646.692871 0.416481 0.853089 -0.314296 
-707.984131 -47.923271 3642.734619 0.380245 0.863634 -0.330983 
-705.776245 -48.001690 3644.996582 0.383499 0.860947 -0.334214 
-706.201111 -47.306274 3646.394531 0.383499 0.860947 -0.334214 
-706.429504 -46.242115 3648.832031 0.383892 0.861831 -0.331473 
-706.169861 -46.892525 3647.524170 0.383892 0.861831 -0.331473 
-702.520935 -48.785652 3646.795654 0.396570 0.859491 -0.322502 
-645.316772 -85.311493 3618.540527 0.375392 0.860467 -0.344496 
-644.757874 -84.194046 3621.845215 0.382706 0.856827 -0.345520 
-647.350464 -82.147499 3624.096924 0.378042 0.859467 -0.344095 
-656.641113 -79.196571 3621.824951 0.370116 0.872743 -0.318330 
-652.535950 -80.618240 3622.555908 0.350299 0.885520 -0.305196 
-654.922302 -78.846657 3624.859131 0.370116 0.872743 -0.318330 
-652.791321 -80.337418 3623.075195 0.348227 0.877412 -0.329980 
-659.135010 -77.211449 3624.255371 0.389272 0.863168 -0.321572 
-650.666748 -81.035858 3623.261230 0.354707 0.867574 -0.348565 
-656.154480 -78.207611 3624.935547 0.370739 0.871161 -0.321918 
-652.485596 -76.813782 3631.986816 0.375981 0.867059 -0.326874 
-649.049866 -80.733910 3625.795166 0.359281 0.869918 -0.337877 
-646.017395 -81.580856 3626.996826 0.381692 0.857647 -0.344604 
-647.764709 -79.180962 3631.114014 0.373797 0.862964 -0.339955 
-652.138855 -77.464165 3630.661865 0.375981 0.867059 -0.326874 
-652.132019 -77.028008 3631.823486 0.375981 0.867059 -0.326874 
-671.682861 -72.788826 3620.365479 0.393087 0.852983 -0.343369 
-670.589844 -72.558327 3622.202637 0.393087 0.852983 -0.343369 
-670.838989 -71.725876 3624.085938 0.383892 0.861831 -0.331473 
-669.781067 -72.497231 3623.304199 0.383892 0.861831 -0.331473 
-668.536072 -70.867912 3629.160156 0.376603 0.865418 -0.330488 
-670.263489 -69.547424 3630.538086 0.394216 0.858000 -0.329286 
-666.844177 -72.707603 3626.157959 0.382628 0.865140 -0.324235 
-663.584534 -73.490120 3627.913574 0.382874 0.862621 -0.330594 
-664.384827 -71.786423 3631.425293 0.373797 0.862964 -0.339955 
-665.048401 -71.437477 3631.583740 0.373797 0.862964 -0.339955 
-661.947449 -73.495773 3629.760742 0.379857 0.862751 -0.333720 
-662.754761 -72.328499 3631.847412 0.377833 0.862077 -0.337737 
-641.539978 -89.888046 3610.992920 0.371146 0.863954 -0.340345 
-642.191650 -88.211899 3614.567139 0.376831 0.862866 -0.336841 
-615.639587 -66.964615 3698.780518 0.372965 0.867182 -0.329989 
-624.426208 -62.297989 3700.845459 0.357510 0.874759 -0.327084 
-623.556274 -62.028603 3702.518311 0.356046 0.880268 -0.313624 
-623.740417 -62.425648 3701.280029 0.371727 0.870422 -0.322775 
-624.492249 -60.962845 3704.373535 0.356046 0.880268 -0.313624 
-620.217834 -62.835163 3704.257568 0.373578 0.865532 -0.333607 
-625.792603 -60.202465 3705.327881 0.339889 0.883711 -0.321761 
-621.937561 -61.553997 3705.587891 0.356311 0.877891 -0.319922 
-624.416077 -59.200279 3709.323975 0.340235 0.874237 -0.346338 
-625.690918 -58.429581 3710.158447 0.334794 0.869853 -0.362311 
-623.565002 -59.323875 3709.812012 0.330675 0.873164 -0.358104 
-621.398193 -59.358414 3711.778320 0.317672 0.886772 -0.335739 
-618.566406 -62.583420 3706.701904 0.378042 0.859467 -0.344095 
-617.507202 -63.497391 3705.574951 0.378042 0.859467 -0.344095 
-619.525574 -62.063847 3706.958740 0.378042 0.859467 -0.344095 
-619.909912 -61.632442 3707.614746 0.378042 0.859467 -0.344095 
-614.484070 -62.532227 3711.213623 0.391878 0.862132 -0.321186 
-658.871887 -42.255512 3713.624268 0.459733 0.792031 -0.401661 
-655.730408 -43.236034 3714.682617 0.393634 0.842157 -0.368542 
-654.783386 -42.449516 3717.452637 0.396006 0.831455 -0.389695 
-648.940002 -44.180950 3719.785156 0.407350 0.844353 -0.348042 
-651.435486 -43.014069 3719.507568 0.414611 0.808412 -0.417813 
-646.264038 -45.227215 3720.195557 0.381148 0.842290 -0.381148 
-647.673950 -44.149868 3721.235107 0.404469 0.826386 -0.391780 
-645.047180 -43.985081 3724.125977 0.391756 0.835431 -0.385463 
-665.064270 -38.911430 3713.277832 0.431145 0.725182 -0.536866 
-663.965942 -38.873936 3714.092041 0.453709 0.716296 -0.530159 
-660.743164 -39.500454 3716.204590 0.471966 0.754817 -0.455521 
-640.760986 -56.521461 3697.394043 0.376831 0.862866 -0.336841 
-642.835083 -55.186569 3698.527588 0.376219 0.864536 -0.333222 
-642.226257 -56.039585 3697.001465 0.376831 0.862866 -0.336841 
-638.990295 -56.534954 3699.371094 0.376219 0.864536 -0.333222 
-643.460327 -52.976402 3703.572266 0.377220 0.863757 -0.334109 
-639.562012 -53.405624 3706.865723 0.368685 0.862323 -0.347089 
-636.993652 -54.954670 3705.740479 0.378442 0.860377 -0.341370 
-640.725220 -52.619637 3707.577637 0.368685 0.862323 -0.347089 
-639.655029 -52.678734 3708.587158 0.368685 0.862323 -0.347089 
-641.992920 -50.601662 3711.246826 0.367707 0.863111 -0.346167 
-638.477539 -52.858368 3709.371094 0.371742 0.862257 -0.343977 
-637.867676 -52.302299 3711.391602 0.373797 0.862964 -0.339955 
-634.704041 -54.094414 3710.345215 0.388799 0.856597 -0.339231 
-633.952393 -54.893265 3709.347412 0.420914 0.830793 -0.364162 
-631.742676 -55.293098 3711.040527 0.397563 0.846576 -0.353909 
-628.614563 20.764877 3391.074707 0.679502 0.633434 0.370189 
-630.184631 -8.058632 3423.024414 0.602942 0.559030 0.569163 
-435.095154 -31.514174 3502.419434 -0.317474 0.534441 0.783315 
-432.579956 -31.001778 3503.128906 -0.328484 0.536791 0.777145 
-433.266510 -28.063339 3500.812744 -0.321139 0.535232 0.781279 
-434.234589 -28.894320 3500.988037 -0.314063 0.537255 0.782766 
-427.605682 -29.952221 3504.369385 -0.346441 0.523690 0.778284 
-428.221130 -28.543982 3503.149414 -0.310159 0.532838 0.787328 
-431.317322 -47.017143 3512.642822 -0.199420 0.487303 0.850157 
-435.147400 -42.039707 3509.345459 -0.312202 0.511885 0.800315 
-432.557281 -45.305450 3512.064697 -0.199420 0.487303 0.850157 
-435.467102 -50.130447 3516.964844 -0.558591 0.822653 -0.105915 
-428.933960 -45.760944 3513.058838 -0.255711 0.460892 0.849818 
-432.254883 -47.529987 3520.061523 -0.544174 0.831498 -0.111737 
-428.678284 -45.352180 3518.885498 -0.547766 0.828223 -0.118318 
-426.226349 -43.892132 3513.070557 -0.566980 0.821485 0.060798 
-425.007111 -43.312000 3516.570068 -0.550753 0.832468 -0.060569 
-447.317719 -57.526356 3521.143066 -0.557571 0.822526 -0.112096 
-446.651550 -55.944607 3528.738770 -0.548669 0.828097 -0.114973 
-446.600586 -56.127399 3527.193359 -0.549994 0.827179 -0.115251 
-443.805481 -55.083702 3521.449707 -0.557700 0.818059 -0.140535 
-438.608887 -51.506405 3522.431641 -0.547766 0.828223 -0.118318 
-437.277802 -50.472404 3523.619385 -0.539708 0.833565 -0.117834 
-442.360291 -53.155296 3528.304443 -0.546387 0.830450 -0.108698 
-438.712006 -50.946602 3526.799316 -0.545310 0.830325 -0.114879 
-450.227570 -57.835285 3531.980469 -0.546387 0.830450 -0.108698 
-445.723663 -55.294193 3528.985107 -0.548669 0.828097 -0.114973 
-446.232147 -55.410698 3530.593994 -0.548669 0.828097 -0.114973 
-444.805115 -54.323914 3531.666260 -0.548850 0.828370 -0.112099 
-447.742279 -56.086376 3532.946533 -0.545310 0.830325 -0.114879 
-439.604797 -51.217197 3529.268311 -0.548585 0.829391 -0.105664 
-439.290680 -50.808662 3530.867432 -0.547529 0.829281 -0.111829 
-440.798218 -51.346138 3534.105469 -0.545310 0.830325 -0.114879 
-437.233887 -49.577591 3529.735107 -0.553077 0.825986 -0.108873 
-436.579681 -48.812523 3532.199219 -0.553249 0.826244 -0.106003 
-436.700500 -48.596474 3534.616455 -0.551057 0.827312 -0.109048 
-467.570129 -66.302849 3553.714111 -0.548901 0.827011 -0.121490 
-461.832703 -62.356857 3554.760742 -0.553354 0.824921 -0.115343 
-462.063080 -61.739552 3560.645508 -0.547295 0.831715 -0.093370 
-457.328461 -58.914516 3558.539062 -0.547595 0.830783 -0.099694 
-468.002472 -65.250099 3563.769775 -0.542146 0.831485 -0.121289 
-463.373199 -62.562519 3560.984863 -0.548850 0.828370 -0.112099 
-464.268341 -62.621258 3564.895752 -0.548669 0.828097 -0.114973 
-466.478638 -63.934406 3565.947266 -0.542146 0.831485 -0.121289 
-463.183502 -61.420124 3568.422363 -0.548669 0.828097 -0.114973 
-461.453247 -60.353172 3567.684570 -0.546443 0.829137 -0.118032 
-459.061951 -59.688126 3561.343750 -0.543205 0.832914 -0.105744 
-456.442657 -57.679935 3563.654541 -0.538760 0.835006 -0.111818 
-459.940613 -59.601471 3566.184570 -0.547779 0.826809 -0.127766 
-459.526733 -59.005699 3568.298828 -0.548704 0.826714 -0.124373 
-528.932556 -43.246632 3472.105957 -0.325106 0.530098 0.783136 
-547.500427 -36.376770 3459.767090 -0.328521 0.527236 0.783643 
-546.000977 -34.736500 3459.319336 -0.331934 0.524360 0.784134 
-546.484802 -40.477428 3462.977783 -0.325366 0.533729 0.780558 
-481.926208 -73.521782 3569.887695 -0.548669 0.828097 -0.114973 
-542.402039 -39.413368 3463.954834 -0.328521 0.527236 0.783643 
-477.721893 -70.717285 3570.259521 -0.546443 0.829137 -0.118032 
-542.239746 -36.556568 3462.077148 -0.335059 0.527437 0.780734 
-540.637146 -37.546684 3463.460449 -0.327697 0.525914 0.784875 
-539.402161 -38.003540 3464.264893 -0.327697 0.525914 0.784875 
-538.537170 -34.095398 3462.006348 -0.328521 0.527236 0.783643 
-537.456421 -34.906761 3463.009033 -0.324839 0.526463 0.785695 
-539.418335 -37.034805 3463.629639 -0.327697 0.525914 0.784875 
-537.503723 -37.416279 3464.629395 -0.324024 0.525142 0.786915 
-482.358826 -72.988060 3575.711182 -0.545310 0.830325 -0.114879 
-536.135559 -34.949768 3463.575439 -0.324024 0.525142 0.786915 
-476.313263 -69.348511 3573.288330 -0.548669 0.828097 -0.114973 
-542.871643 -31.264294 3458.259766 -0.331101 0.523043 0.785365 
-480.209076 -71.633728 3575.318848 -0.543262 0.831642 -0.115061 
-477.775940 -69.998611 3575.681396 -0.544174 0.831498 -0.111737 
-540.763245 -28.201025 3457.125244 -0.327143 0.518641 0.789930 
-540.225037 -33.341640 3460.773682 -0.334783 0.523800 0.783297 
-539.571838 -28.051189 3457.513916 -0.327143 0.518641 0.789930 
-537.351196 -28.110542 3458.471924 -0.324024 0.525142 0.786915 
-473.426971 -67.725914 3571.327881 -0.544394 0.830457 -0.118220 
-475.552277 -68.782440 3573.803955 -0.546629 0.829419 -0.115157 
-533.036499 -31.461847 3462.533447 -0.327697 0.525914 0.784875 
-540.472839 -41.040836 3465.850098 -0.328248 0.523596 0.786194 
-475.981964 -68.792839 3575.805908 -0.547529 0.829281 -0.111829 
-534.943848 -40.794361 3467.999512 -0.317219 0.530824 0.785874 
-534.416504 -37.677525 3466.104248 -0.331376 0.526679 0.782815 
-472.039856 -66.340492 3574.792236 -0.550759 0.829733 -0.090595 
-532.930786 -41.824696 3469.498291 -0.317756 0.528528 0.787204 
-468.420471 -63.906670 3575.246582 -0.531391 0.844306 -0.069067 
-484.266174 -73.764442 3579.155762 -0.545490 0.830599 -0.112007 
-530.082947 -98.741768 3508.378906 -0.310427 0.526929 0.791190 
-531.738342 -102.595642 3510.295898 -0.313299 0.526406 0.790405 
-480.301910 -71.308182 3578.153564 -0.544174 0.831498 -0.111737 
-530.495361 -104.265480 3511.888672 -0.316419 0.519945 0.793433 
-477.138947 -69.331818 3577.479248 -0.544174 0.831498 -0.111737 
-527.055542 -100.575241 3510.787109 -0.310427 0.526929 0.791190 
-483.225067 -72.655663 3582.238770 -0.551057 0.827312 -0.109048 
-481.994324 -71.723167 3582.995605 -0.539891 0.833847 -0.114963 
-519.611023 -98.171265 3512.115479 -0.308552 0.511089 0.802236 
-478.621979 -69.690964 3582.068359 -0.527358 0.842328 -0.111251 
-528.364014 -92.107948 3504.641113 -0.317490 0.524896 0.789737 
-526.243103 -93.706665 3506.581055 -0.317756 0.528528 0.787204 
-525.667786 -91.599457 3505.401611 -0.316958 0.527202 0.788413 
-473.470978 -66.838333 3579.672119 -0.511858 0.854987 -0.083655 
-521.117371 -94.572296 3509.208252 -0.312995 0.513185 0.799171 
-522.845032 -90.365295 3505.696289 -0.324567 0.522824 0.788233 
-520.345520 -91.851036 3507.779053 -0.324288 0.519181 0.790752 
-520.577637 -93.162376 3508.511719 -0.320890 0.522045 0.790252 
-475.020355 -67.441521 3582.380859 -0.514082 0.852031 -0.098807 
-522.254456 -96.945587 3510.324463 -0.305464 0.517548 0.799272 
-474.090454 -66.773682 3583.471680 -0.511436 0.849480 -0.129680 
-471.940247 -65.980186 3578.128906 -0.529364 0.845571 -0.069170 
-520.450439 -94.603767 3509.512451 -0.312995 0.513185 0.799171 
-517.992676 -94.733856 3510.557373 -0.309337 0.512389 0.801104 
-519.022766 -97.416306 3511.864990 -0.308834 0.514723 0.799801 
-469.242767 -64.109344 3580.549805 -0.554341 0.829385 -0.069470 
-517.664734 -92.854599 3509.482178 -0.309893 0.519667 0.796186 
-471.368073 -65.301315 3582.143555 -0.525127 0.844519 -0.105025 
-468.774139 -63.461479 3583.176514 -0.568080 0.811331 -0.137941 
-520.696228 -105.209381 3516.583008 -0.323069 0.914156 0.244837 
-433.280914 -35.021591 3617.988525 -0.548850 0.828370 -0.112099 
-433.575745 -34.796947 3620.802490 -0.549806 0.826897 -0.118128 
-531.094299 -111.590637 3522.107178 -0.534549 0.828027 -0.169199 
-432.979492 -34.025608 3623.627197 -0.544348 0.831764 -0.108870 
-531.238098 -111.471230 3523.876953 -0.534263 0.838315 -0.108590 
-428.743805 -32.165031 3616.944336 -0.545490 0.830599 -0.112007 
-524.369629 -107.435608 3521.378662 -0.514029 0.837733 -0.184331 
-527.700745 -109.138847 3524.449463 -0.532960 0.837924 -0.117629 
-430.713165 -32.927532 3620.634521 -0.547766 0.828223 -0.118318 
-429.869171 -32.350609 3620.738525 -0.546629 0.829419 -0.115157 
-529.495728 -110.084122 3525.864746 -0.534263 0.838315 -0.108590 
-524.413208 -106.658920 3527.237061 -0.533140 0.838207 -0.114763 
-427.599548 -31.058672 3619.417236 -0.545525 0.829257 -0.121390 
-424.775208 -29.381830 3618.114502 -0.546557 0.830708 -0.105832 
-423.470520 -28.474470 3618.383057 -0.546557 0.830708 -0.105832 
-529.528442 -66.370918 3487.176758 -0.323185 0.514230 0.794430 
-528.252197 -67.214470 3488.239502 -0.323185 0.514230 0.794430 
-530.948242 -62.004742 3483.700928 -0.323750 0.521509 0.789440 
-529.030701 -61.260048 3483.984619 -0.323750 0.521509 0.789440 
-434.898468 -35.050091 3625.322754 -0.544174 0.831498 -0.111737 
-526.686401 -61.627052 3485.196289 -0.320884 0.531613 0.783850 
-435.584198 -34.625130 3631.912354 -0.543036 0.832656 -0.108607 
-430.520813 -32.178177 3625.481445 -0.552091 0.827412 -0.102883 
-428.505249 -30.706984 3626.359863 -0.547529 0.829281 -0.111829 
-522.544189 -58.222328 3484.673340 -0.327969 0.519951 0.788725 
-522.179626 -59.636059 3485.763916 -0.327423 0.522280 0.787412 
-429.205658 -30.640213 3630.423340 -0.538548 0.835977 -0.105399 
-532.225342 -81.737488 3495.913086 -0.320848 0.478901 0.817135 
-528.846863 -76.079872 3493.850830 -0.313814 0.533643 0.785332 
-428.112366 -30.290775 3627.569336 -0.547529 0.829281 -0.111829 
-425.394348 -28.559002 3627.143555 -0.546387 0.830450 -0.108698 
-526.866821 -75.439796 3494.218018 -0.324567 0.522824 0.788233 
-525.634338 -75.767952 3494.935303 -0.324567 0.522824 0.788233 
-522.842407 -73.988777 3494.927979 -0.327423 0.522280 0.787412 
-427.001312 -28.932856 3632.749268 -0.538548 0.835977 -0.105399 
-521.826538 -74.334747 3495.563232 -0.317219 0.521259 0.792251 
-444.331818 -40.015671 3634.643066 -0.545490 0.830599 -0.112007 
-445.428253 -40.280540 3637.955566 -0.538760 0.835006 -0.111818 
-527.737305 -88.380287 3502.438232 -0.313033 0.522782 0.792912 
-526.335632 -87.152428 3502.179199 -0.310163 0.523300 0.793698 
-443.332062 -39.539429 3633.341797 -0.547529 0.829281 -0.111829 
-525.239014 -88.015457 3503.178955 -0.316692 0.523575 0.790933 
-441.024078 -37.785061 3635.088379 -0.547529 0.829281 -0.111829 
-436.774017 -35.224895 3633.195068 -0.547529 0.829281 -0.111829 
-517.806885 -82.450737 3502.526611 -0.310685 0.530554 0.788662 
-529.215088 -81.576340 3497.192627 -0.364613 0.489899 0.791869 
-527.694763 -80.082130 3496.971436 -0.348386 0.512143 0.785072 
-523.642395 -81.826202 3499.816162 -0.313299 0.526406 0.790405 
-520.842224 -81.546516 3500.736572 -0.313033 0.522782 0.792912 
-520.311401 -80.597168 3500.314453 -0.313033 0.522782 0.792912 
-523.044067 -76.756599 3496.687012 -0.327423 0.522280 0.787412 
-532.820740 -73.062714 3490.233398 -0.313299 0.526406 0.790405 
-545.309021 -57.787136 3475.062744 -0.324567 0.522824 0.788233 
-544.855286 -55.795208 3473.911621 -0.327697 0.525914 0.784875 
-445.197784 -39.299095 3645.280273 -0.572659 0.817069 -0.066786 
-541.507629 -57.278099 3476.298584 -0.323750 0.521509 0.789440 
-541.568298 -56.481773 3475.743408 -0.324024 0.525142 0.786915 
-539.380005 -56.608715 3476.724121 -0.320355 0.524362 0.788934 
-537.581299 -53.055576 3475.075684 -0.316958 0.527202 0.788413 
-442.736786 -37.619335 3644.488281 -0.572659 0.817069 -0.066786 
-537.500916 -49.999973 3473.059082 -0.316958 0.527202 0.788413 
-535.027039 -52.403641 3475.654297 -0.314088 0.527732 0.789207 
-536.065247 -51.455513 3474.618408 -0.314088 0.527732 0.789207 
-539.191406 -57.741440 3477.536133 -0.320612 0.518403 0.792758 
-537.689941 -56.733223 3477.484619 -0.320355 0.524362 0.788934 
-437.725800 -34.329815 3644.137695 -0.548585 0.829391 -0.105664 
-436.820190 -33.838390 3643.502441 -0.538763 0.833696 -0.121185 
-443.482819 -38.044918 3645.701904 -0.572659 0.817069 -0.066786 
-441.927032 -36.971249 3645.504883 -0.572659 0.817069 -0.066786 
-441.543121 -36.741310 3645.179932 -0.560917 0.821809 -0.100009 
-553.316345 -121.544334 3555.065430 -0.538710 0.836228 -0.102543 
-550.156250 -119.332535 3556.455811 -0.536327 0.837017 -0.108422 
-552.050537 -120.121948 3559.805908 -0.542949 0.833866 -0.099373 
-554.055664 -121.202454 3562.286133 -0.552047 0.831600 -0.060711 
-554.080688 -121.136124 3564.532471 -0.545150 0.837737 -0.031743 
-552.047546 -119.768753 3562.780273 -0.578461 0.812702 -0.069987 
-550.535278 -118.171638 3568.456055 -0.547704 0.829547 -0.108960 
-467.446899 -50.746807 3666.797607 -0.543262 0.831642 -0.115061 
-559.850037 -124.014214 3570.736084 -0.521519 0.850455 -0.068880 
-557.630981 -122.718018 3570.561768 -0.535316 0.834506 -0.130529 
-466.475342 -49.768177 3669.157959 -0.540831 0.832384 -0.120994 
-563.352966 -125.690880 3573.840088 -0.542060 0.834049 -0.102630 
-564.134338 -126.084000 3574.776855 -0.544097 0.832742 -0.102469 
-562.746338 -125.052643 3575.794678 -0.544097 0.832742 -0.102469 
-461.875824 -47.297668 3665.392578 -0.544174 0.831498 -0.111737 
-563.456909 -125.132706 3578.954834 -0.544255 0.832985 -0.099612 
-559.651184 -122.464714 3580.603760 -0.539612 0.836039 -0.099289 
-561.289734 -123.291565 3582.533691 -0.540755 0.834926 -0.102383 
-464.558502 -48.320038 3670.605225 -0.536493 0.834707 -0.124256 
-575.468872 -128.935455 3585.897705 0.148091 0.983664 -0.102340 
-574.014038 -129.505371 3585.639404 0.067729 0.990673 -0.118238 
-578.763367 -126.046272 3589.544922 0.378442 0.860377 -0.341370 
-572.342285 -128.743515 3589.500732 -0.100667 0.975599 -0.195120 
-579.203979 -124.698853 3592.446289 0.387769 0.857418 -0.338333 
-456.354736 -43.601421 3665.905518 -0.545490 0.830599 -0.112007 
-570.805786 -129.269730 3585.408691 -0.148935 0.988796 0.010078 
-566.527588 -126.205811 3586.973633 -0.554227 0.824795 -0.112009 
-571.231567 -127.756073 3592.842285 -0.354059 0.922232 -0.155338 
-568.439636 -126.857544 3591.810791 -0.444030 0.880780 -0.164509 
-566.111389 -125.349602 3591.665527 -0.542949 0.833866 -0.099373 
-459.307404 -44.775990 3671.550537 -0.540989 0.833965 -0.108778 
-458.080750 -44.016781 3671.258057 -0.540989 0.833965 -0.108778 
-579.464050 -123.910400 3594.137207 0.392462 0.854730 -0.339720 
-577.533752 -124.169701 3595.766357 0.392462 0.854730 -0.339720 
-577.789612 -122.172752 3600.382324 0.386369 0.854977 -0.346025 
-575.888123 -123.918762 3598.248535 0.389615 0.852186 -0.349256 
-574.288147 -123.632408 3600.728027 0.390648 0.851332 -0.350182 
-575.618286 -123.156197 3600.372803 0.386369 0.854977 -0.346025 
-566.430481 -125.296753 3593.869141 -0.542949 0.833866 -0.099373 
-564.369019 -124.026527 3593.280518 -0.545129 0.832795 -0.096368 
-565.158875 -124.286179 3595.444580 -0.542949 0.833866 -0.099373 
-568.845825 -125.710419 3600.073486 0.166924 0.945905 -0.278207 
-466.427124 -48.515598 3678.384766 -0.520645 0.848724 -0.092718 
-595.453125 -120.196754 3585.813965 0.404786 0.851447 -0.333445 
-594.383484 -119.783134 3588.057617 0.416074 0.852256 -0.317083 
-468.073639 -49.381119 3679.718506 -0.520645 0.848724 -0.092718 
-593.714478 -119.173714 3590.590820 0.414515 0.843107 -0.342561 
-592.941589 -118.736107 3592.556641 0.404123 0.838122 -0.366383 
-592.304199 -120.349800 3589.535400 0.432549 0.841675 -0.323241 
-590.393494 -121.126015 3589.952637 0.408451 0.849515 -0.333904 
-460.652130 -44.725513 3678.299072 -0.537456 0.835882 -0.111547 
-587.226135 -121.490837 3592.500488 0.351259 0.866643 -0.354327 
-456.595428 -42.573418 3674.864746 -0.540989 0.833965 -0.108778 
-591.377991 -118.217537 3595.395996 0.386555 0.852284 -0.352402 
-594.776672 -117.034210 3594.497314 0.389615 0.852186 -0.349256 
-593.798828 -116.112106 3597.956543 0.388389 0.855694 -0.341968 
-596.133484 -115.065903 3597.885010 0.392462 0.854730 -0.339720 
-594.941467 -114.548195 3600.555908 0.392047 0.853827 -0.342460 
-456.541260 -41.841400 3680.159912 -0.595736 0.769946 -0.228651 
-547.381042 -119.946899 3537.421631 -0.534093 0.838048 -0.111450 
-481.628632 -57.275059 3686.799316 -0.540913 0.835169 -0.099528 
-543.349182 -117.159134 3540.287842 -0.497119 0.861004 -0.107446 
-542.144592 -116.443359 3540.641602 -0.486566 0.865484 -0.119130 
-476.638824 -54.155445 3685.795410 -0.534093 0.838048 -0.111450 
-477.832489 -54.835766 3686.295166 -0.542127 0.832811 -0.111914 
-546.548828 -118.647293 3543.347412 -0.519669 0.847881 -0.105085 
-543.361267 -116.877136 3542.412354 -0.497119 0.861004 -0.107446 
-540.557495 -115.328964 3542.183350 -0.504134 0.851914 -0.141742 
-535.093628 -112.179649 3537.717529 -0.558188 0.825085 -0.087531 
-533.903687 -111.387932 3537.216797 -0.543973 0.833900 -0.093294 
-475.363953 -53.554916 3684.074463 -0.520781 0.848945 -0.089888 
-533.669495 -111.033539 3538.925293 -0.576118 0.811210 -0.100131 
-538.231018 -113.918953 3541.694824 -0.535873 0.829787 -0.155863 
-533.695007 -110.729950 3541.427490 -0.545490 0.830599 -0.112007 
-532.983032 -109.907570 3544.072021 -0.536327 0.837017 -0.108422 
-542.593506 -115.558723 3547.986572 -0.525095 0.841029 -0.130177 
-542.225281 -115.251907 3548.563232 -0.525095 0.841029 -0.130177 
-547.298584 -118.433105 3549.234375 -0.538467 0.837137 -0.096206 
-541.269531 -114.329674 3550.774658 -0.536517 0.836036 -0.114864 
-539.698425 -114.138702 3545.577148 -0.536119 0.830168 -0.152965 
-482.510834 -57.536194 3689.180664 -0.537456 0.835882 -0.111547 
-535.538818 -111.330170 3545.642578 -0.533133 0.839431 -0.105471 
-532.899414 -109.378090 3547.900635 -0.532001 0.840533 -0.102363 
-534.121582 -110.058456 3548.682373 -0.534219 0.839487 -0.099356 
-539.706299 -113.366982 3550.489258 -0.536493 0.837276 -0.105563 
-483.476562 -57.791912 3691.974854 -0.536517 0.836036 -0.114864 
-480.550049 -55.835426 3692.563477 -0.542127 0.832811 -0.111914 
-534.896118 -110.390785 3550.062256 -0.532001 0.840533 -0.102363 
-532.467224 -108.896706 3549.657227 -0.532930 0.840334 -0.099116 
-479.321777 -55.200054 3691.054443 -0.546387 0.830450 -0.108698 
-499.805084 -82.804543 3587.787842 -0.543262 0.831642 -0.115061 
-499.755829 -82.335182 3590.875977 -0.543262 0.831642 -0.115061 
-476.414124 -53.487808 3689.686279 -0.540817 0.833699 -0.111643 
-496.826660 -80.878250 3587.666504 -0.543077 0.831360 -0.117934 
-477.854889 -54.043411 3692.436279 -0.548850 0.828370 -0.112099 
-483.242706 -57.448395 3693.239014 -0.536517 0.836036 -0.114864 
-495.411987 -79.974625 3587.573975 -0.540831 0.832384 -0.120994 
-482.826569 -57.084755 3693.872803 -0.536517 0.836036 -0.114864 
-494.093048 -78.992149 3588.409668 -0.546629 0.829419 -0.115157 
-499.376404 -81.883324 3592.511963 -0.539683 0.834845 -0.108515 
-493.986206 -78.764282 3589.522461 -0.546629 0.829419 -0.115157 
-493.661011 -78.215805 3591.993164 -0.548669 0.828097 -0.114973 
-480.296967 -55.497562 3693.791016 -0.542127 0.832811 -0.111914 
-491.279114 -77.328857 3587.003906 -0.547766 0.828223 -0.118318 
-488.329224 -75.244881 3587.869629 -0.552207 0.826124 -0.112190 
-491.896759 -77.184639 3590.833984 -0.548669 0.828097 -0.114973 
-491.360687 -76.707771 3591.803711 -0.548669 0.828097 -0.114973 
-489.738098 -75.716087 3591.278809 -0.547704 0.829547 -0.108960 
-493.638031 -77.868248 3594.299072 -0.552024 0.825851 -0.115066 
-492.535889 -76.923157 3595.814453 -0.549994 0.827179 -0.115251 
-499.263184 -80.739677 3600.317627 -0.549994 0.827179 -0.115251 
-494.223541 -77.830193 3597.493164 -0.551057 0.827312 -0.109048 
-475.418518 -51.894108 3696.449219 -0.538760 0.835006 -0.111818 
-472.322693 -49.961254 3695.977051 -0.539683 0.834845 -0.108515 
-490.927490 -75.602257 3597.709961 -0.546557 0.830708 -0.105832 
-604.888855 -109.387390 3602.872559 0.378612 0.866056 -0.326496 
-609.961121 -107.818840 3601.133545 0.376219 0.864536 -0.333222 
-470.703918 -49.149979 3694.157227 -0.540989 0.833965 -0.108778 
-605.439087 -109.060104 3603.091064 0.378612 0.866056 -0.326496 
-469.593781 -48.227024 3695.722900 -0.538467 0.837137 -0.096206 
-599.916077 -111.587463 3602.504395 0.360238 0.869171 -0.338777 
-601.674988 -109.166924 3606.810059 0.387769 0.857418 -0.338333 
-603.222229 -107.711655 3608.717529 0.388173 0.858312 -0.335592 
-601.006592 -109.249008 3607.364990 0.387769 0.857418 -0.338333 
-603.140686 -107.547554 3609.234863 0.388173 0.858312 -0.335592 
-597.498108 -108.586212 3612.834961 0.381692 0.857647 -0.344604 
-596.966736 -107.374588 3616.433105 0.378042 0.859467 -0.344095 
-525.262085 -92.706886 3636.853516 -0.530809 0.837889 -0.127219 
-531.564636 -96.410866 3639.616943 -0.543036 0.832656 -0.108607 
-525.623840 -92.488663 3639.788086 -0.542146 0.831485 -0.121289 
-523.487610 -91.402527 3638.021484 -0.539684 0.832196 -0.127243 
-527.244385 -93.015915 3643.793457 -0.544348 0.831764 -0.108870 
-531.623291 -95.689407 3647.260010 -0.522988 0.847896 -0.086927 
-524.076172 -91.326797 3640.933838 -0.542146 0.831485 -0.121289 
-546.889343 -105.099976 3649.100830 -0.557429 0.823836 -0.102799 
-547.830383 -105.467743 3651.297852 -0.557429 0.823836 -0.102799 
-542.548340 -101.866028 3651.746338 -0.520717 0.849890 -0.080874 
-544.704834 -102.871857 3655.073486 -0.557861 0.821417 -0.118600 
-544.869873 -102.730339 3656.633545 -0.559007 0.820171 -0.121779 
-543.163818 -102.109505 3653.153320 -0.571165 0.810257 -0.131353 
-537.758423 -99.048416 3649.777100 -0.525095 0.841029 -0.130177 
-536.821472 -98.394043 3650.256104 -0.515038 0.850745 -0.104729 
-539.707031 -99.427040 3656.122559 -0.541948 0.832537 -0.114783 
-535.098267 -96.974205 3654.018555 -0.722485 0.687737 0.070945 
-532.916931 -94.974731 3656.860352 -0.542989 0.825642 -0.153227 
-544.547485 -102.281311 3658.388184 -0.554405 0.825060 -0.109135 
-542.229736 -100.487885 3660.449219 -0.542127 0.832811 -0.111914 
-546.901672 -103.391541 3662.133545 -0.569734 0.814530 -0.109284 
-544.482239 -101.856979 3661.291748 -0.553077 0.825986 -0.108873 
-539.337341 -98.613060 3660.477539 -0.542127 0.832811 -0.111914 
-535.951233 -96.495956 3659.642334 -0.546654 0.828041 -0.124573 
-534.606201 -95.678177 3659.325195 -0.544116 0.827233 -0.140084 
-512.958923 -88.862610 3608.357178 -0.498307 0.849354 -0.174036 
-502.728241 -82.919403 3601.263672 -0.549994 0.827179 -0.115251 
-502.580444 -82.026062 3606.596436 -0.490199 0.864636 -0.110045 
-501.977844 -82.101700 3603.302490 -0.550942 0.825682 -0.121295 
-510.596436 -86.834686 3611.445557 -0.544233 0.825989 -0.146809 
-510.564087 -86.102280 3615.137451 -0.570316 0.806826 -0.154180 
-509.205170 -85.408669 3613.750488 -0.570316 0.806826 -0.154180 
-502.942535 -81.821503 3609.834717 -0.545490 0.830599 -0.112007 
-505.250549 -82.690659 3614.577148 -0.545310 0.830325 -0.114879 
-501.524323 -80.640251 3611.689453 -0.547529 0.829281 -0.111829 
-500.663086 -79.439026 3616.295654 -0.543077 0.831360 -0.117934 
-564.166687 -102.268402 3665.640625 0.374396 0.861266 -0.343582 
-558.475586 -102.720505 3670.755615 0.366428 0.849802 -0.378902 
-557.805115 -103.360222 3669.920410 0.395082 0.853687 -0.339306 
-559.545898 -102.054291 3671.192871 0.366428 0.849802 -0.378902 
-562.196899 -100.644173 3671.797852 0.334214 0.860947 -0.383499 
-549.781006 -104.946800 3666.336182 -0.598341 0.797308 -0.079298 
-550.146484 -105.151505 3666.905762 -0.598341 0.797308 -0.079298 
-551.859497 -104.743675 3672.331055 -0.142656 0.986801 -0.076633 
-548.942444 -103.695160 3671.460205 -0.388901 0.919824 -0.051765 
-563.964294 -99.334084 3673.533691 0.325333 0.882181 -0.340464 
-559.898315 -100.772797 3673.720215 0.369269 0.860598 -0.350729 
-559.991638 -99.348892 3677.296143 0.387544 0.860007 -0.331960 
-557.373047 -99.856773 3679.044922 0.393087 0.852983 -0.343369 
-553.363281 -104.042023 3673.072510 0.131512 0.962250 -0.238284 
-549.977051 -103.761108 3675.473877 -0.072263 0.962242 -0.262430 
-555.940674 -102.160225 3674.945557 0.394858 0.856301 -0.332920 
-553.315613 -102.131149 3678.031494 0.287062 0.929061 -0.233326 
-550.613708 -103.411865 3676.992432 -0.038867 0.899310 -0.435582 
-548.619995 -102.810379 3677.054199 -0.252878 0.894686 -0.368226 
-551.050476 -102.570816 3679.171143 -0.038867 0.899310 -0.435582 
-572.405823 -90.455269 3686.477539 0.332215 0.868046 -0.368958 
-570.706482 -92.483978 3683.222412 0.381484 0.860270 -0.338239 
-564.497314 -93.126511 3688.194336 0.358907 0.864150 -0.352746 
-566.696167 -91.946632 3688.786133 0.368719 0.870545 -0.325880 
-567.901794 -91.299553 3689.237305 0.368719 0.870545 -0.325880 
-567.946716 -90.225731 3692.009277 0.366308 0.869024 -0.332589 
-567.686096 -90.580338 3691.377686 0.365335 0.869771 -0.331705 
-564.422119 -91.234589 3693.183105 0.359651 0.870814 -0.335164 
-564.341125 -90.373024 3695.507568 0.370545 0.865631 -0.336720 
-589.904968 -84.988373 3681.365967 0.371742 0.862257 -0.343977 
-590.279236 -82.743042 3686.598633 0.383892 0.861831 -0.331473 
-589.881897 -82.666611 3687.215576 0.363868 0.875415 -0.318194 
-582.170105 -88.055824 3681.895264 0.363489 0.866545 -0.342017 
-587.745117 -85.988258 3681.128174 0.370756 0.863045 -0.343064 
-588.278320 -84.980080 3683.095459 0.371146 0.863954 -0.340345 
-585.393860 -85.626282 3684.656494 0.377438 0.861176 -0.340465 
-583.804565 -85.379906 3687.037109 0.370545 0.865631 -0.336720 
-587.507080 -82.596054 3690.183105 0.363868 0.875415 -0.318194 
-586.162964 -83.288445 3689.808838 0.373578 0.865532 -0.333607 
-583.440918 -83.305946 3692.770020 0.381084 0.859368 -0.340970 
-584.133972 -82.349243 3694.461182 0.381484 0.860270 -0.338239 
-594.777954 -79.618477 3689.779541 0.349112 0.865860 -0.358340 
-596.017517 -76.639069 3695.872559 0.371347 0.861339 -0.346693 
-586.658203 -81.044914 3694.903076 0.384518 0.860147 -0.335102 
-608.805359 -73.709702 3689.019531 0.379857 0.862751 -0.333720 
-607.943054 -73.997032 3689.275635 0.379857 0.862751 -0.333720 
-607.534058 -73.451599 3691.149414 0.379857 0.862751 -0.333720 
-605.523071 -73.955231 3692.134277 0.383499 0.860947 -0.334214 
-579.897949 -89.933998 3679.526855 0.368097 0.864027 -0.343455 
-499.795624 -66.751091 3703.748047 -0.545525 0.829257 -0.121390 
-495.937012 -65.068382 3698.017090 -0.545525 0.829257 -0.121390 
-495.357635 -64.395004 3699.990234 -0.542146 0.831485 -0.121289 
-497.921631 -65.553307 3703.507812 -0.543077 0.831360 -0.117934 
-495.604370 -64.080124 3703.289307 -0.537641 0.834873 -0.118019 
-490.479279 -61.367779 3698.976807 -0.538763 0.833696 -0.121185 
-491.741028 -61.929024 3700.740479 -0.541951 0.831187 -0.124167 
-496.334961 -64.184669 3705.974121 -0.538583 0.834731 -0.114685 
-493.979065 -62.749748 3705.378174 -0.539891 0.833847 -0.114963 
-499.224792 -65.595871 3709.580078 -0.539891 0.833847 -0.114963 
-495.672668 -63.107288 3710.939453 -0.536296 0.834400 -0.127133 
-490.127869 -60.059895 3706.728271 -0.542146 0.831485 -0.121289 
-492.047363 -61.134975 3707.953613 -0.539708 0.833565 -0.117834 
-510.724243 -72.548698 3713.496582 -0.539851 0.835104 -0.105654 
-509.429932 -71.332085 3716.343994 -0.544174 0.831498 -0.111737 
-511.587250 -72.195503 3720.339355 -0.540831 0.832384 -0.120994 
-510.238770 -71.400826 3719.678223 -0.549806 0.826897 -0.118128 
-506.394653 -69.676933 3713.681152 -0.545490 0.830599 -0.112007 
-506.374786 -69.224228 3716.843750 -0.543262 0.831642 -0.115061 
-500.503387 -65.708588 3714.505127 -0.544174 0.831498 -0.111737 
-503.516632 -67.437378 3716.381592 -0.541948 0.832537 -0.114783 
-501.613403 -66.243057 3716.008057 -0.544174 0.831498 -0.111737 
-506.516571 -68.967598 3719.356445 -0.545310 0.830325 -0.114879 
-506.032288 -68.616035 3719.603516 -0.541948 0.832537 -0.114783 
-504.347504 -67.465797 3720.018555 -0.536493 0.837276 -0.105563 
-502.768188 -66.757370 3717.789062 -0.540817 0.833699 -0.111643 
-502.047577 -66.317474 3717.556885 -0.542127 0.832811 -0.111914 
-513.478271 -72.810356 3724.303711 -0.535186 0.835590 -0.123953 
-510.541718 -71.236839 3722.204834 -0.538763 0.833696 -0.121185 
-509.244568 -70.432869 3721.754639 -0.548669 0.828097 -0.114973 
-509.562622 -70.275864 3724.491211 -0.542127 0.832811 -0.111914 
-514.758423 -73.315727 3726.494141 -0.543077 0.831360 -0.117934 
-506.139282 -68.282211 3722.620361 -0.535196 0.838138 -0.105308 
-506.011597 -68.067108 3723.655273 -0.535196 0.838138 -0.105308 
-504.452637 -67.083366 3724.024902 -0.518443 0.851828 -0.074870 
-502.932220 -66.171600 3723.704102 -0.518443 0.851828 -0.074870 
-506.245361 -67.995399 3725.473145 -0.529258 0.845402 -0.071979 
-504.324768 -66.665726 3728.189697 -0.508332 0.858423 -0.068618 
-502.983673 -65.878357 3727.829834 -0.519682 0.848958 -0.095919 
-501.911774 -65.747490 3721.160645 -0.537567 0.837337 -0.099443 
-501.722351 -65.196373 3727.174316 -0.537320 0.838220 -0.093136 
-549.297058 -69.989441 3763.553711 0.366529 0.866480 -0.338924 
-552.978210 -68.902184 3762.446289 0.367495 0.846020 -0.386261 
-552.510437 -68.697235 3763.285645 0.367707 0.863111 -0.346167 
-554.808838 -67.724625 3763.383057 0.355271 0.865876 -0.352195 
-549.942627 -69.362404 3764.467773 0.366529 0.866480 -0.338924 
-554.326416 -66.581108 3766.718750 0.370545 0.865631 -0.336720 
-549.687500 -68.513908 3766.878906 0.370545 0.865631 -0.336720 
-548.442139 -68.826691 3767.495361 0.370545 0.865631 -0.336720 
-561.999634 -62.230644 3768.848389 0.331557 0.872437 -0.359059 
-556.511963 -65.001778 3768.362793 0.373578 0.865532 -0.333607 
-555.857910 -65.457031 3767.929443 0.373578 0.865532 -0.333607 
-551.486572 -66.484749 3770.134521 0.373578 0.865532 -0.333607 
-550.327271 -66.356071 3771.765869 0.366768 0.858887 -0.357483 
-561.253540 -61.820564 3770.540039 0.331557 0.872437 -0.359059 
-554.365601 -65.187836 3770.284180 0.373578 0.865532 -0.333607 
-553.988892 -65.115562 3770.896240 0.373578 0.865532 -0.333607 
-554.998962 -62.399212 3775.682373 0.389589 0.818932 -0.421392 
-552.436707 -62.856808 3776.570557 0.380951 0.795656 -0.470964 
-551.276245 -65.190643 3773.728271 0.405573 0.822278 -0.399211 
-549.825745 -64.704384 3775.995117 0.455418 0.799798 -0.391048 
-516.622925 -72.750740 3739.096436 -0.549733 0.828226 -0.108786 
-530.371460 -81.173836 3745.744629 -0.564428 0.818202 -0.109385 
-531.516052 -81.659760 3746.861328 -0.549806 0.826897 -0.118128 
-529.052979 -80.028954 3746.871826 -0.559007 0.820171 -0.121779 
-528.531067 -79.385078 3748.877930 -0.559007 0.820171 -0.121779 
-527.634277 -78.885689 3747.659668 -0.567918 0.814457 -0.118867 
-524.350647 -76.974152 3745.461426 -0.555260 0.824916 -0.105833 
-527.739502 -78.661736 3750.225098 -0.588556 0.801779 -0.103691 
-523.088806 -75.990265 3746.288086 -0.551057 0.827312 -0.109048 
-522.433960 -75.297447 3748.476318 -0.551924 0.827162 -0.105749 
-523.738586 -76.233055 3747.895508 -0.554101 0.826088 -0.102718 
-520.802429 -74.104050 3749.323975 -0.550931 0.828565 -0.099775 
-526.551025 -77.224136 3754.252686 -0.522360 0.840190 -0.145672 
-523.987427 -75.042747 3757.630127 -0.551057 0.827312 -0.109048 
-548.119507 -72.437599 3758.612549 0.364457 0.865778 -0.342928 
-546.280334 -73.793205 3757.182861 0.364457 0.865778 -0.342928 
-545.842590 -72.911903 3759.899902 0.364457 0.865778 -0.342928 
-537.585571 -74.746567 3764.105713 0.379826 0.854221 -0.355021 
-536.454407 -75.342247 3763.973633 0.383487 0.852366 -0.355541 
-533.155945 -77.170769 3763.021973 0.380243 0.855158 -0.352307 
-538.034241 -74.168282 3764.966064 0.379236 0.855989 -0.351373 
-536.048218 -74.640282 3766.073730 0.401852 0.842794 -0.358070 
-561.987671 55.065311 3390.430664 -0.311620 0.504603 0.805151 
-559.072876 57.910748 3390.015137 -0.385548 0.509184 0.769470 
-562.757690 42.424580 3399.293945 -0.339862 0.533148 0.774756 
-562.116577 51.097027 3393.262695 -0.305437 0.561300 0.769189 
-559.098206 50.596836 3394.829102 -0.308332 0.560749 0.768434 
-557.857056 51.205715 3394.884521 -0.305437 0.561300 0.769189 
-562.285950 47.253853 3396.009277 -0.312332 0.555791 0.770419 
-558.182190 47.081047 3397.758545 -0.305437 0.561300 0.769189 
-556.657959 48.267036 3397.508057 -0.308332 0.560749 0.768434 
-552.407837 50.454220 3397.560059 -0.312332 0.555791 0.770419 
-552.528625 53.599709 3395.234619 -0.339040 0.522217 0.782522 
-553.491272 52.438953 3395.712402 -0.305231 0.557725 0.771866 
-549.416504 52.710182 3397.147461 -0.335059 0.517818 0.787147 
-562.225342 40.061890 3401.157227 -0.304578 0.546965 0.779783 
-558.529846 41.757683 3401.409912 -0.304479 0.556351 0.773153 
-550.603943 40.728371 3405.374023 -0.307236 0.542837 0.781622 
-553.176331 38.302467 3406.045410 -0.307692 0.550020 0.776405 
-548.362854 40.618011 3406.343018 -0.308673 0.554971 0.772482 
-447.708832 29.853676 3454.061523 -0.486051 0.423862 0.764261 
-446.831116 28.578423 3455.403320 -0.333717 0.549746 0.765776 
-445.691010 28.285650 3456.073242 -0.277787 0.595257 0.753992 
-447.011383 33.462601 3452.585938 -0.274921 0.408585 0.870331 
-450.365234 35.184818 3450.609619 -0.378392 0.305449 0.873797 
-447.339874 31.548361 3453.034668 -0.622928 0.388297 0.679107 
-549.211548 28.185173 3414.842529 -0.322101 0.549655 0.770799 
-557.262451 30.501955 3409.935303 -0.311661 0.545007 0.778354 
-548.709106 32.696674 3411.837402 -0.311343 0.550838 0.774366 
-438.454926 30.527956 3457.553223 -0.337173 0.546897 0.766301 
-558.699402 6.509504 3426.038574 -0.321942 0.536570 0.780029 
-550.930054 11.403360 3425.863281 -0.314088 0.527732 0.789207 
-552.229309 12.027306 3424.931396 -0.321162 0.525683 0.787726 
-451.299927 13.997257 3464.361328 -0.311562 0.554421 0.771716 
-451.211578 21.147665 3459.128662 -0.305831 0.568429 0.763777 
-548.187500 4.260983 3431.959717 -0.281379 0.529747 0.800122 
-451.729858 17.598408 3461.595703 -0.305637 0.564868 0.766492 
-451.518280 15.516577 3463.174805 -0.312332 0.555791 0.770419 
-449.321381 16.090096 3463.651367 -0.311983 0.561570 0.766359 
-545.461792 -3.946190 3438.640381 -0.325620 0.537354 0.777960 
-447.152313 17.145603 3463.774170 -0.316035 0.569505 0.758805 
-447.168518 16.308512 3464.386475 -0.309091 0.562128 0.767121 
-448.336029 20.059753 3461.088135 -0.305458 0.574134 0.759648 
-447.256165 18.854921 3462.435303 -0.306019 0.571984 0.761043 
-542.698059 1.497681 3436.107422 -0.320622 0.527990 0.786402 
-445.787292 18.653330 3463.192627 -0.312380 0.568692 0.760926 
-442.744141 20.518499 3463.055908 -0.309484 0.569259 0.761685 
-441.155518 21.609083 3462.880371 -0.305274 0.570591 0.762387 
-541.635376 -1.794116 3438.750000 -0.320622 0.527990 0.786402 
-536.826233 5.720587 3435.567139 -0.321389 0.538846 0.778688 
-440.131134 22.091825 3462.923096 -0.301988 0.564031 0.768552 
-436.319733 20.986568 3465.229492 -0.311983 0.561570 0.766359 
-451.111053 8.079435 3468.673340 -0.311891 0.548608 0.775728 
-540.106934 -0.975582 3438.825195 -0.320622 0.527990 0.786402 
-450.612305 8.563876 3468.523438 -0.311891 0.548608 0.775728 
-451.775665 10.383958 3466.765625 -0.301582 0.556889 0.773901 
-533.898193 1.490682 3439.666992 -0.310938 0.534175 0.786114 
-534.818909 2.779359 3438.424805 -0.308002 0.544191 0.780379 
-533.323547 3.273193 3438.660156 -0.307767 0.540586 0.782973 
-547.861206 18.098537 3422.452393 -0.325540 0.546843 0.771354 
-447.028320 10.672435 3468.481445 -0.312114 0.552202 0.773083 
-546.712952 19.101055 3422.231689 -0.303120 0.525302 0.795095 
-444.804016 13.795089 3467.149170 -0.305019 0.554144 0.774524 
-449.921204 9.010761 3468.473389 -0.314774 0.548058 0.774951 
-446.702820 9.447654 3469.489990 -0.311343 0.550838 0.774366 
-545.866455 -13.234867 3444.937012 -0.302614 0.527595 0.793769 
-542.545654 -11.526516 3445.090576 -0.294485 0.505506 0.811014 
-544.373962 -15.787775 3447.217041 -0.295091 0.522327 0.800060 
-443.342499 9.408639 3470.866943 -0.307692 0.550020 0.776405 
-545.882446 -13.800439 3445.322266 -0.302614 0.527595 0.793769 
-443.039612 6.776188 3472.822266 -0.308455 0.551383 0.775133 
-540.796509 -13.129008 3446.726318 -0.277043 0.518087 0.809217 
-443.432770 8.083716 3471.745361 -0.310887 0.543654 0.779609 
-541.620667 -12.304332 3445.915283 -0.295838 0.523648 0.798920 
-542.047607 -11.761325 3445.440918 -0.294485 0.505506 0.811014 
-443.214600 12.040262 3469.019287 -0.305019 0.554144 0.774524 
-547.077942 -23.786718 3451.584473 -0.345856 0.526023 0.776970 
-546.079895 -23.742714 3451.962646 -0.327423 0.522280 0.787412 
-546.239990 -18.111412 3447.982666 -0.313277 0.516828 0.796710 
-542.491577 -24.472576 3453.940918 -0.327969 0.519951 0.788725 
-441.951904 17.950266 3465.286621 -0.312380 0.568692 0.760926 
-441.359558 14.190715 3468.191406 -0.297939 0.556046 0.775916 
-536.898987 -19.106028 3452.403564 -0.313330 0.573636 0.756813 
-436.551208 17.813934 3467.509033 -0.319665 0.557406 0.766233 
-539.589844 -17.017075 3449.705078 -0.326800 0.555399 0.764679 
-537.863831 -15.717672 3449.405273 -0.326800 0.555399 0.764679 
-537.083252 -17.525013 3451.071533 -0.326800 0.555399 0.764679 
-535.830139 -14.213360 3449.321289 -0.322190 0.540190 0.777424 
-535.563477 -16.102890 3450.686035 -0.326800 0.555399 0.764679 
-467.960571 38.484299 3440.821289 -0.404786 0.333445 0.851447 
-451.308380 -2.087939 3475.731445 -0.300701 0.542535 0.784369 
-451.459106 -5.731240 3478.199463 -0.311426 0.541402 0.780960 
-449.433350 -5.826224 3479.077881 -0.312114 0.552202 0.773083 
-445.463867 -2.081175 3478.041748 -0.314999 0.551648 0.772308 
-444.322723 -4.741246 3480.410645 -0.314999 0.551648 0.772308 
-444.354767 -2.956873 3479.120850 -0.314999 0.551648 0.772308 
-449.048340 0.979852 3474.469482 -0.318204 0.545264 0.775522 
-446.726959 1.874696 3474.812256 -0.321139 0.535232 0.781279 
-446.056610 4.341562 3473.370605 -0.318994 0.546618 0.774242 
-445.618988 -1.037583 3477.247803 -0.346441 0.523690 0.778284 
-443.308258 3.512168 3475.090820 -0.308455 0.551383 0.775133 
-440.273315 5.981042 3474.482422 -0.308673 0.554971 0.772482 
-439.184570 -1.291204 3480.011963 -0.311776 0.557999 0.769047 
-448.372620 -9.146279 3481.880127 -0.318435 0.548860 0.772885 
-439.085602 -8.148695 3484.657471 -0.279325 0.553915 0.784319 
-436.573486 -2.304357 3481.803955 -0.318435 0.548860 0.772885 
-439.516144 -8.801384 3484.971680 -0.279325 0.553915 0.784319 
-436.995178 -9.865493 3486.617920 -0.294707 0.562334 0.772611 
-448.275726 -19.790522 3489.255127 -0.310408 0.536448 0.784774 
-447.246094 -24.868114 3493.025391 -0.320355 0.524362 0.788934 
-442.193451 -23.638052 3494.230225 -0.316942 0.517619 0.794744 
-441.720337 -25.260477 3495.481934 -0.320082 0.520730 0.791446 
-439.771240 -21.404198 3493.784912 -0.309337 0.512389 0.801104 
-436.582855 -19.880978 3494.002441 -0.219304 0.328240 0.918784 
-437.047729 -12.880234 3488.871094 -0.320473 0.571699 0.755286 
-372.196228 -6.703921 3522.777832 -0.562165 0.817561 -0.124762 
-369.096161 -4.676243 3522.512939 -0.552091 0.827412 -0.102883 
-366.452057 -3.037094 3521.320312 -0.530727 0.840197 -0.111351 
-367.065216 -3.035753 3524.613281 -0.534219 0.839487 -0.099356 
-364.376984 -1.442374 3524.386475 -0.528597 0.843750 -0.093113 
-367.320038 -2.747715 3528.721924 -0.525254 0.845845 -0.093029 
-361.637115 0.362910 3524.531006 -0.542035 0.828560 -0.140309 
-448.575287 -35.227371 3499.533447 -0.316371 0.510327 0.799672 
-449.744720 -37.706173 3500.640137 -0.320329 0.514758 0.795245 
-447.636505 -36.045319 3500.424805 -0.323185 0.514230 0.794430 
-447.741425 -35.104778 3499.767578 -0.316371 0.510327 0.799672 
-452.006042 -40.126678 3501.328857 -0.321162 0.525683 0.787726 
-447.654236 -39.155617 3502.430176 -0.316942 0.517619 0.794744 
-371.061096 -4.975034 3531.531738 -0.558591 0.822653 -0.105915 
-367.208893 -2.267218 3532.337891 -0.560752 0.821567 -0.102877 
-370.372040 -4.209681 3533.751221 -0.551142 0.823019 -0.137416 
-439.477509 -37.645439 3504.755615 -0.310163 0.523300 0.793698 
-367.704498 -2.468280 3533.265869 -0.560752 0.821567 -0.102877 
-365.088013 -0.562100 3534.000000 -0.549448 0.817398 -0.173114 
-443.537476 -31.413572 3498.901367 -0.328734 0.540406 0.774529 
-438.517548 -30.200272 3500.183105 -0.318269 0.535779 0.782078 
-360.352386 2.047499 3530.272949 -0.612937 0.773360 -0.161936 
-441.878265 -28.789400 3497.773438 -0.321688 0.532946 0.782614 
-436.633270 -29.465702 3500.407715 -0.314063 0.537255 0.782766 
-436.888702 -33.669277 3503.174561 -0.320622 0.527990 0.786402 
-359.241882 3.158031 3531.359863 -0.612937 0.773360 -0.161936 
-450.121063 -59.409035 3521.055176 -0.546629 0.829419 -0.115157 
-448.318726 -58.015320 3522.422852 -0.552024 0.825851 -0.115066 
-452.192749 -60.031784 3525.673584 -0.556804 0.819698 -0.134401 
-451.748383 -54.759609 3511.052979 -0.335378 0.487967 0.805860 
-377.092010 -8.212084 3538.599609 -0.565378 0.804868 -0.180375 
-375.140289 -7.223026 3537.061035 -0.551968 0.810466 -0.196154 
-375.007446 -6.374288 3540.004150 -0.563250 0.811259 -0.156873 
-451.089203 -47.414364 3506.585449 -0.316942 0.517619 0.794744 
-379.848480 -9.490529 3541.627197 -0.556773 0.818085 -0.144019 
-375.759277 -6.635604 3541.259521 -0.558995 0.815388 -0.150556 
-375.986237 -6.389534 3544.387695 -0.563084 0.819163 -0.109125 
-374.204559 -5.357408 3542.770264 -0.558723 0.821308 -0.115246 
-445.156372 -49.427120 3510.209229 -0.308834 0.514723 0.799801 
-443.653961 -42.873989 3506.590088 -0.308552 0.511089 0.802236 
-373.682220 -4.794316 3544.796875 -0.558761 0.822902 -0.103044 
-373.040894 -4.499829 3543.439941 -0.555375 0.823588 -0.115157 
-438.558838 -43.055267 3508.659668 -0.312995 0.513185 0.799171 
-380.866821 -9.502479 3546.001709 -0.552274 0.824748 -0.121588 
-443.094940 -46.918793 3509.393799 -0.301755 0.507138 0.807313 
-440.573639 -46.893250 3510.346924 -0.278457 0.490023 0.826038 
-437.633240 -49.067253 3512.456543 -0.241037 0.502033 0.830580 
-439.316132 -47.888016 3511.421631 -0.285163 0.478389 0.830558 
-437.618805 -47.736568 3511.821289 -0.250945 0.488035 0.835971 
-438.471588 -44.632183 3509.684326 -0.293612 0.494587 0.818031 
-379.682861 -8.493858 3547.591309 -0.556590 0.823986 -0.106086 
-376.830170 -6.506643 3548.124512 -0.559583 0.822747 -0.099771 
-440.103424 -53.307953 3516.345947 -0.549905 0.828484 -0.105918 
-441.045471 -53.568069 3519.316406 -0.547529 0.829281 -0.111829 
-438.497253 -51.978535 3518.557129 -0.553077 0.825986 -0.108873 
-437.788635 -51.349651 3519.708008 -0.553077 0.825986 -0.108873 
-373.926422 -4.259401 3550.151123 -0.562899 0.820473 -0.099846 
-464.911346 -66.814903 3538.379639 -0.545992 0.819740 -0.172973 
-468.270203 -68.638641 3540.511963 -0.547572 0.826496 -0.130654 
-375.116455 -4.896016 3551.822021 -0.567150 0.818255 -0.093803 
-464.897247 -66.472244 3540.115967 -0.545992 0.819740 -0.172973 
-463.743713 -66.171677 3537.879883 -0.525515 0.835166 -0.162269 
-387.722260 -12.817492 3556.412354 -0.552657 0.829699 -0.078543 
-461.624420 -63.826508 3543.323730 -0.547529 0.829281 -0.111829 
-460.995575 -63.348286 3543.834717 -0.547529 0.829281 -0.111829 
-457.306030 -61.393581 3540.355469 -0.553166 0.824640 -0.118223 
