ply
format ascii 1.0
comment Created by CloudCompare v2.12.0 (Kyiv)
comment Created 2023-05-18T15:13:34
obj_info Generated by CloudCompare!
element vertex 758
property float x
property float y
property float z
property float nx
property float ny
property float nz
end_header
-83.280098 133.006210 2614.000244 -0.494010 0.864871 -0.089177 
-82.384361 133.722366 2616.219727 -0.493894 0.863958 -0.098209 
-83.343201 133.251572 2617.722168 -0.360947 0.910277 -0.202763 
-98.301094 135.133850 2613.699463 0.342017 0.866545 -0.363489 
8.577772 241.228210 2538.960938 -0.281847 0.527479 0.801454 
-93.503128 134.149384 2616.074463 0.355989 0.861462 -0.362153 
-98.430565 136.993835 2618.012939 0.326567 0.876415 -0.353908 
-92.581444 136.531555 2622.654541 0.366197 0.860639 -0.353836 
-89.306030 134.201096 2620.377686 0.309842 0.871526 -0.380053 
-91.605057 135.901352 2622.122070 0.366197 0.860639 -0.353836 
8.103600 240.715210 2539.134766 -0.281847 0.527479 0.801454 
15.329537 195.574982 2577.629150 -0.555428 0.825166 -0.102964 
13.195131 194.490616 2579.997803 -0.556783 0.821218 -0.124872 
15.358272 196.741806 2587.852051 -0.562392 0.822838 -0.081568 
14.976192 196.724152 2590.346436 -0.548060 0.832767 -0.078294 
13.041767 195.636719 2592.295898 -0.548060 0.832767 -0.078294 
-3.161691 184.908783 2594.085938 -0.558042 0.826358 -0.075642 
2.537760 188.680023 2593.184082 -0.560430 0.824162 -0.081700 
-0.259260 187.027267 2595.779053 -0.559109 0.825078 -0.081507 
-3.761491 184.835480 2597.609619 -0.558042 0.826358 -0.075642 
-1.794155 186.151917 2597.263916 -0.558042 0.826358 -0.075642 
-1.174548 186.883606 2600.835449 -0.562186 0.824065 -0.069740 
0.394852 187.827271 2599.327881 -0.558042 0.826358 -0.075642 
0.270443 187.833557 2600.589111 -0.562186 0.824065 -0.069740 
7.576947 192.340912 2596.146729 -0.563742 0.823713 -0.060754 
9.643380 193.755600 2596.126465 -0.563742 0.823713 -0.060754 
10.118032 244.430679 2537.414307 -0.284494 0.523407 0.803186 
10.105362 194.158493 2597.317383 -0.558042 0.826358 -0.075642 
-1.451567 187.244156 2608.214111 -0.558042 0.826358 -0.075642 
3.095764 190.123337 2606.158203 -0.568709 0.819568 -0.069841 
5.215767 191.345840 2602.400391 -0.562093 0.825618 -0.049060 
5.808176 191.708450 2601.891357 -0.598995 0.789247 -0.135257 
4.399754 190.824173 2602.992432 -0.562093 0.825618 -0.049060 
3.726259 190.384064 2603.407715 -0.562093 0.825618 -0.049060 
9.755435 194.339432 2601.776855 -0.554636 0.828390 -0.078419 
9.026597 194.379791 2608.479248 -0.561321 0.824129 -0.075700 
-8.484400 182.834030 2611.345459 -0.549587 0.830838 -0.087532 
-9.247177 182.640457 2614.268066 -0.554888 0.827314 -0.087463 
-7.929145 183.471176 2613.849854 -0.528379 0.844552 -0.086876 
-4.428713 185.790192 2616.158447 -0.532847 0.841412 -0.089998 
-7.736752 184.027267 2618.629150 -0.529364 0.845571 -0.069170 
-19.533083 177.149139 2629.023926 -0.564597 0.821882 -0.075756 
-20.147272 177.302460 2634.963867 -0.560297 0.823966 -0.084546 
-16.401297 179.660477 2632.988281 -0.551350 0.830586 -0.078357 
-17.290771 179.188904 2634.445068 -0.559109 0.825078 -0.081507 
-16.727076 179.614655 2634.965088 -0.559109 0.825078 -0.081507 
-18.054655 178.945557 2637.138428 -0.559109 0.825078 -0.081507 
-48.380852 162.136627 2676.127197 -0.555025 0.827519 -0.084616 
-49.181431 161.595795 2675.757080 -0.549447 0.830626 -0.090379 
-47.014442 163.082031 2676.287842 -0.556065 0.826195 -0.090522 
-45.116943 164.423462 2676.839600 -0.559512 0.824165 -0.087738 
-46.922321 163.447388 2679.162109 -0.556065 0.826195 -0.090522 
-45.047314 164.829666 2680.076904 -0.559512 0.824165 -0.087738 
-42.852608 166.249268 2679.376953 -0.560696 0.823027 -0.090807 
-42.900356 166.320648 2680.400879 -0.552899 0.828631 -0.087602 
-51.411877 160.597458 2680.908936 -0.542639 0.836034 -0.081182 
-46.819370 164.068939 2684.613525 -0.562186 0.824065 -0.069740 
-48.637241 162.862778 2685.020996 -0.567761 0.815883 -0.109465 
-50.138840 162.267853 2688.320068 -0.555025 0.827519 -0.084616 
-61.915321 154.112122 2689.892822 -0.540303 0.838107 -0.075160 
-61.284309 154.857925 2692.169922 -0.475125 0.830300 -0.291306 
-67.018814 156.261658 2694.363037 0.363117 0.860664 -0.356936 
-66.041725 156.648712 2696.216309 0.357076 0.857910 -0.369442 
-64.173386 155.167267 2694.749268 0.226067 0.964982 -0.133056 
-58.426105 156.593216 2689.405029 -0.575098 0.814841 -0.072779 
-57.358860 157.580887 2692.511230 -0.571538 0.818306 -0.060983 
-13.040384 265.077209 2515.571045 -0.285703 0.531944 0.797126 
-53.738979 160.089355 2692.311035 -0.575098 0.814841 -0.072779 
-56.216347 158.407501 2693.179932 -0.571272 0.819894 -0.037712 
-64.438843 157.185974 2699.104736 0.339442 0.864732 -0.370160 
-62.799988 156.715408 2699.528076 0.339442 0.864732 -0.370160 
-60.884655 157.031418 2701.823730 -0.077028 0.976908 -0.199294 
-59.221207 157.662811 2703.860596 -0.171502 0.949339 -0.263330 
-65.871216 157.834793 2699.201660 0.348726 0.864903 -0.361016 
-67.203339 160.396530 2704.048340 0.357076 0.857910 -0.369442 
-61.874203 158.259720 2704.077148 0.229797 0.885088 -0.404739 
-57.249950 158.195435 2698.264648 -0.597829 0.798539 -0.070249 
-57.474094 158.160416 2699.798096 -0.423653 0.903157 -0.069474 
-52.872681 161.279266 2698.259766 -0.558559 0.827233 -0.060805 
-56.114716 159.192673 2699.965332 -0.576691 0.812544 -0.084850 
-53.996330 161.070419 2704.791992 -0.564775 0.820576 -0.087662 
-39.977871 166.023285 2657.188232 -0.562521 0.823027 -0.078724 
-38.060966 167.455933 2658.506348 -0.559237 0.825267 -0.078665 
-14.430535 267.320282 2513.571045 -0.288598 0.531462 0.796404 
-37.658501 168.166031 2663.115723 -0.554636 0.828390 -0.078419 
-37.125881 168.640472 2664.475830 -0.557919 0.826176 -0.078480 
-38.432083 167.948959 2666.439209 -0.562521 0.823027 -0.078724 
-36.667675 169.347534 2668.480713 -0.561198 0.823947 -0.078539 
-38.254551 168.413956 2670.141113 -0.561198 0.823947 -0.078539 
-36.375313 169.660843 2669.672852 -0.561321 0.824129 -0.075700 
-37.180927 169.275742 2671.487549 -0.561198 0.823947 -0.078539 
-83.728554 166.455154 2703.248779 0.330509 0.875773 -0.351832 
-35.279350 167.680862 2641.109863 -0.560002 0.825042 -0.075522 
-31.501547 170.295242 2641.641846 -0.559237 0.825267 -0.078665 
-31.744862 170.307465 2643.687500 -0.561198 0.823947 -0.078539 
-29.183662 172.199997 2645.212158 -0.561198 0.823947 -0.078539 
-31.318266 171.048920 2648.324463 -0.562521 0.823027 -0.078724 
-22.237030 176.606827 2642.190674 -0.541790 0.836272 -0.084342 
-20.440752 178.266769 2647.036865 -0.558042 0.826358 -0.075642 
-34.737087 169.328384 2654.583008 -0.559109 0.825078 -0.081507 
-32.559948 170.839767 2655.061279 -0.557919 0.826176 -0.078480 
-31.937645 171.229507 2654.744141 -0.558042 0.826358 -0.075642 
-22.332935 177.226715 2649.776855 -0.563273 0.822807 -0.075578 
-11.504708 265.289673 2515.985596 -0.281615 0.533339 0.797648 
-11.307803 265.777283 2515.727783 -0.278472 0.539637 0.794509 
13.478444 205.754135 2690.949463 -0.559109 0.825078 -0.081507 
17.704327 208.528564 2689.998535 -0.564775 0.820576 -0.087662 
18.265417 209.328125 2693.937988 -0.564915 0.820779 -0.084809 
16.475719 208.287079 2695.943848 -0.563273 0.822807 -0.075578 
21.285526 211.060272 2690.677002 -0.564775 0.820576 -0.087662 
20.212944 210.497269 2692.320068 -0.564915 0.820779 -0.084809 
20.341368 210.582901 2692.294922 -0.564915 0.820779 -0.084809 
24.665287 213.550995 2692.358643 -0.563719 0.821910 -0.081761 
21.109564 211.190781 2693.114258 -0.562521 0.823027 -0.078724 
25.205416 214.163696 2694.801758 -0.565801 0.820769 -0.078782 
24.496593 213.723022 2695.388916 -0.565801 0.820769 -0.078782 
15.721434 207.929184 2697.664307 -0.563273 0.822807 -0.075578 
20.435362 211.155426 2697.753174 -0.571011 0.817161 -0.078711 
22.262001 212.407227 2697.604004 -0.568203 0.818500 -0.084871 
22.687574 212.963562 2700.093018 -0.568203 0.818500 -0.084871 
-9.744384 266.436554 2515.834473 -0.277779 0.528879 0.801951 
-72.312241 163.351730 2706.306641 0.335686 0.869106 -0.363277 
-75.901146 164.765213 2706.422363 0.332075 0.870740 -0.362681 
-73.101555 164.367569 2708.015625 0.335686 0.869106 -0.363277 
-70.733536 163.141159 2707.312988 0.341487 0.868266 -0.359863 
-74.028206 165.165695 2709.065430 0.335686 0.869106 -0.363277 
-71.558868 165.119125 2711.266357 0.339304 0.867451 -0.363869 
-98.263481 173.337830 2706.006104 0.352994 0.872551 -0.337712 
-7.304024 267.069183 2516.240967 -0.270560 0.517661 0.811680 
-6.876072 266.966278 2516.463135 -0.281847 0.536927 0.795155 
-5.802714 267.708710 2516.344971 -0.281847 0.536927 0.795155 
-91.681107 171.469131 2707.768311 0.346901 0.872600 -0.343844 
-90.713905 171.775253 2709.492676 0.350147 0.870015 -0.347089 
-88.734444 171.261108 2710.218262 0.346901 0.872600 -0.343844 
-91.813118 172.641373 2710.597168 0.351080 0.869269 -0.348014 
-87.330643 171.329636 2711.802002 0.360030 0.860672 -0.360030 
-97.013290 175.193405 2711.656982 0.360516 0.874670 -0.324008 
-94.353798 174.017365 2711.444092 0.362081 0.872356 -0.328470 
-95.627441 174.606140 2711.611816 0.357193 0.869220 -0.341863 
-85.608673 171.892487 2714.838623 0.320267 0.878837 -0.353660 
-4.857657 269.073608 2515.797363 -0.289562 0.536401 0.792734 
-85.030869 172.238892 2716.233643 0.317348 0.876124 -0.362901 
-100.180550 177.004074 2713.017090 0.345104 0.866594 -0.360442 
-98.315353 177.896576 2716.898438 0.338402 0.868209 -0.362902 
-94.443878 176.336334 2716.787354 0.345550 0.882737 -0.318389 
-92.807465 175.883072 2717.312500 0.357076 0.857910 -0.369442 
-88.940872 174.633652 2718.138184 0.360475 0.832714 -0.420292 
-85.015221 173.577530 2719.398682 0.338402 0.868209 -0.362902 
-3.181577 197.580704 2722.624023 -0.560430 0.824162 -0.081700 
-3.706941 197.392349 2724.301514 -0.557005 0.826201 -0.084482 
-2.535203 198.341599 2725.832031 -0.557005 0.826201 -0.084482 
2.035560 200.085739 2711.840820 -0.562668 0.821697 -0.090660 
6.880486 202.756500 2705.910889 -0.553710 0.828419 -0.084416 
4.876699 202.051178 2712.238770 -0.561483 0.822839 -0.087597 
-0.796032 198.933197 2719.765381 -0.562392 0.822838 -0.081568 
1.875598 200.641479 2718.634033 -0.560430 0.824162 -0.081700 
3.980047 201.650467 2714.184082 -0.558188 0.825085 -0.087531 
6.358821 203.168869 2713.364258 -0.562813 0.821908 -0.087805 
8.323109 204.545319 2713.541504 -0.567383 0.820501 -0.069679 
5.355842 203.120193 2719.743896 -0.565671 0.820581 -0.081628 
-4.790139 264.157471 2519.127930 -0.295091 0.522327 0.800060 
9.085081 205.587448 2718.505127 -0.567150 0.818255 -0.093803 
11.355577 206.863876 2716.115967 -0.559512 0.824165 -0.087738 
-20.299576 187.392151 2737.008545 -0.568492 0.817298 -0.094025 
-14.182062 191.938385 2740.650146 -0.564238 0.822906 -0.066799 
-9.513184 194.800919 2737.485596 -0.591469 0.804228 -0.058154 
-5.593260 197.552643 2738.306396 -0.555949 0.827492 -0.078605 
-8.233864 195.870361 2739.282471 -0.560430 0.824162 -0.081700 
-7.615493 196.475967 2741.388672 -0.560430 0.824162 -0.081700 
-18.857143 189.356155 2748.804932 -0.536029 0.840300 -0.081044 
-19.203878 189.192978 2749.209961 -0.529585 0.842457 -0.099028 
-16.275112 190.902527 2747.661377 -0.555025 0.827519 -0.084616 
-14.522265 192.235001 2748.132568 -0.600035 0.794720 -0.091531 
-14.253053 192.310059 2747.266113 -0.598009 0.795890 -0.094576 
-15.601228 191.646225 2750.093994 -0.555025 0.827519 -0.084616 
-10.641799 195.008514 2746.901611 -0.601802 0.790141 -0.116240 
-11.463470 194.607773 2748.444824 -0.601802 0.790141 -0.116240 
-6.962502 197.785202 2749.290283 -0.577477 0.810214 -0.100368 
-7.349720 197.710022 2750.941895 -0.564001 0.820759 -0.090875 
-30.644886 182.584427 2758.805908 -0.571848 0.817129 -0.072729 
-30.116674 183.092255 2759.967285 -0.558188 0.825085 -0.087531 
-22.668869 187.473541 2752.915771 -0.553097 0.827479 -0.096756 
-20.824574 188.776245 2753.562988 -0.540989 0.833965 -0.108778 
-4.408171 271.681702 2514.187744 -0.282554 0.538274 0.793993 
-23.535036 187.370056 2757.454346 -0.558188 0.825085 -0.087531 
-23.496696 187.655243 2759.874512 -0.554888 0.827314 -0.087463 
-22.545774 188.547928 2762.300293 -0.552899 0.828631 -0.087602 
-21.734306 189.163666 2762.973877 -0.552899 0.828631 -0.087602 
-26.688385 185.982132 2765.468262 -0.558188 0.825085 -0.087531 
-49.957714 182.847153 2774.523926 0.332589 0.869024 -0.366308 
-46.837746 183.970490 2780.079590 0.353764 0.868331 -0.347639 
-47.016899 184.445328 2781.081299 0.354885 0.864936 -0.354885 
-52.234310 187.761078 2784.253418 0.327597 0.873083 -0.361118 
-50.277599 187.045410 2784.295410 0.330154 0.874832 -0.354497 
-53.391457 188.680099 2785.424316 0.327597 0.873083 -0.361118 
-64.090851 193.404541 2786.716797 0.341487 0.868266 -0.359863 
-64.058327 193.234344 2786.336670 0.341487 0.868266 -0.359863 
-67.866684 194.650314 2786.154297 0.337877 0.869918 -0.359281 
-65.622902 195.031830 2789.210938 0.341863 0.869220 -0.357193 
-66.019806 195.212662 2789.263428 0.341863 0.869220 -0.357193 
-66.718452 196.975830 2792.851074 0.345484 0.867550 -0.357768 
-62.931519 195.171814 2792.149902 0.345104 0.866594 -0.360442 
-59.002739 192.139221 2788.414062 0.334638 0.872502 -0.356030 
-57.777050 192.946213 2791.538086 0.334272 0.871551 -0.358694 
-52.806698 190.796143 2791.016113 0.335164 0.870814 -0.359651 
-60.771435 195.181290 2794.193115 0.335312 0.868135 -0.365934 
-61.130749 197.185852 2798.575439 0.337877 0.869918 -0.359281 
-56.533009 193.400787 2793.826660 0.338777 0.869171 -0.360238 
-58.787643 194.837952 2795.143555 0.338777 0.869171 -0.360238 
-59.542610 195.708511 2796.492432 0.339304 0.867451 -0.363869 
-55.785213 194.126480 2796.296143 0.345104 0.866594 -0.360442 
-59.851105 197.005920 2799.345947 0.338777 0.869171 -0.360238 
-55.356773 194.396484 2797.354004 0.341487 0.868266 -0.359863 
-55.992802 195.772430 2800.036621 0.342017 0.866545 -0.363489 
-53.019032 194.797302 2800.493164 0.338402 0.868209 -0.362902 
-78.562210 201.567490 2792.813721 0.329101 0.878109 -0.347300 
-84.242004 202.143143 2788.993164 0.355271 0.865876 -0.352195 
-80.950951 202.655457 2793.307129 0.365560 0.904434 -0.219919 
-83.338310 203.684174 2793.560303 0.338777 0.869171 -0.360238 
-83.623375 205.759384 2798.432129 0.354707 0.867574 -0.348565 
-76.549721 202.735596 2797.489990 0.345484 0.867550 -0.357768 
-75.528381 201.327652 2795.082764 0.339304 0.867451 -0.363869 
-71.241493 199.006989 2793.543701 0.338402 0.868209 -0.362902 
-75.461273 202.747437 2798.561035 0.351809 0.864927 -0.357954 
-75.881050 203.356506 2799.659180 0.337712 0.872551 -0.352994 
-97.725708 212.510559 2801.883301 0.370211 0.821456 -0.433767 
-94.117096 211.222916 2802.337402 0.295041 0.866779 -0.402051 
-95.306366 213.232071 2805.196045 0.337085 0.849704 -0.405434 
-93.246300 212.490814 2805.339111 0.355339 0.843735 -0.402300 
-93.868195 213.955963 2808.316406 0.338247 0.870871 -0.356613 
-90.453705 209.751358 2801.227051 0.308058 0.888110 -0.341118 
-87.100914 208.979691 2802.789062 0.368868 0.859663 -0.353434 
-84.651100 208.028305 2803.069092 0.352355 0.863192 -0.361587 
-87.121460 209.907791 2804.987061 0.373094 0.856104 -0.357613 
-85.377975 211.923431 2811.518066 0.368596 0.839145 -0.399966 
-84.440086 213.512558 2815.718262 0.370664 0.819280 -0.437480 
-35.907345 179.809647 2769.318115 -0.550542 0.830819 -0.081509 
-34.927078 180.932968 2774.173340 -0.606834 0.792454 -0.061397 
-17.901733 202.313278 2850.512451 0.228493 0.918283 -0.323339 
-98.283463 325.220734 2444.376709 -0.276122 0.560133 0.781030 
-99.595757 320.026428 2447.591309 -0.272135 0.552136 0.788091 
-97.492493 320.200836 2448.203857 -0.269016 0.549044 0.791316 
-98.506645 322.676880 2446.108154 -0.269416 0.556163 0.786191 
-88.361862 324.576538 2448.287842 -0.265366 0.557425 0.786676 
-99.184982 284.856018 2471.554932 -0.284742 0.527009 0.800739 
-94.639404 289.474060 2470.156250 -0.281615 0.533339 0.797648 
-93.331177 286.244568 2472.771484 -0.288598 0.531462 0.796404 
-90.521820 292.324799 2469.706543 -0.282323 0.534680 0.796499 
-89.442726 289.981232 2471.661865 -0.282323 0.534680 0.796499 
-90.281693 292.597321 2469.604736 -0.282323 0.534680 0.796499 
-87.648369 291.815765 2471.068604 -0.282323 0.534680 0.796499 
-99.319855 281.125305 2473.965332 -0.291973 0.528708 0.797007 
-97.367447 278.123047 2476.687744 -0.305998 0.524795 0.794327 
-98.222229 283.462555 2472.833984 -0.284742 0.527009 0.800739 
-93.518967 283.849945 2474.301514 -0.292709 0.530040 0.795851 
-92.563484 282.980408 2475.233887 -0.291973 0.528708 0.797007 
-88.709579 282.726562 2476.803955 -0.284985 0.530607 0.798273 
-91.290161 278.249695 2478.818604 -0.284742 0.527009 0.800739 
-90.946999 279.799255 2477.922119 -0.292460 0.526428 0.798336 
-89.845848 279.239288 2478.698242 -0.285461 0.528339 0.799606 
-86.397537 281.964539 2478.114990 -0.281379 0.529747 0.800122 
-88.261139 279.756683 2478.938477 -0.284742 0.527009 0.800739 
-85.094803 279.159241 2480.422852 -0.278240 0.526613 0.803281 
-85.397598 281.148346 2479.007568 -0.278015 0.532470 0.799490 
-82.947266 259.124451 2494.511230 -0.295838 0.523648 0.798920 
-83.790489 260.956879 2492.993164 -0.295598 0.529547 0.795111 
-76.584473 260.230011 2496.087402 -0.278240 0.526613 0.803281 
-73.824745 261.782440 2496.044189 -0.281601 0.523873 0.803901 
-83.647865 245.284851 2503.393311 -0.292952 0.533648 0.793346 
-81.922844 234.778824 2510.749756 -0.290021 0.543591 0.787653 
-80.483002 240.858261 2507.408203 -0.335899 0.528759 0.779478 
-76.661438 244.907608 2506.179932 -0.288598 0.531462 0.796404 
-78.233063 244.571701 2505.825684 -0.298978 0.526770 0.795692 
-72.959084 244.054047 2508.076416 -0.285214 0.524731 0.802066 
-71.757240 241.228683 2510.343506 -0.298191 0.515917 0.803064 
-73.742096 242.142960 2509.009521 -0.298191 0.515917 0.803064 
-69.067574 245.049561 2508.791260 -0.284742 0.527009 0.800739 
-94.594933 247.705444 2497.792725 -0.281847 0.527479 0.801454 
-92.969528 247.464722 2498.500488 -0.285214 0.524731 0.802066 
-94.141663 249.371521 2496.863281 -0.285461 0.528339 0.799606 
-91.662857 249.305038 2497.769043 -0.284742 0.527009 0.800739 
-88.734039 247.935104 2499.726074 -0.292460 0.526428 0.798336 
-92.231071 251.563904 2496.066650 -0.284985 0.530607 0.798273 
-85.206680 251.195023 2498.888672 -0.298978 0.526770 0.795692 
-88.256622 252.155609 2497.104248 -0.292218 0.532310 0.794516 
-85.096863 250.440033 2499.428955 -0.298978 0.526770 0.795692 
-100.216698 268.101654 2482.300049 -0.296093 0.527267 0.796442 
-94.677841 267.969757 2484.388184 -0.284742 0.527009 0.800739 
-93.212021 263.973053 2487.549561 -0.288354 0.527862 0.798883 
-92.853577 267.695557 2485.206543 -0.288354 0.527862 0.798883 
-86.937775 265.388977 2488.896973 -0.291973 0.528708 0.797007 
-89.682983 268.570557 2485.775146 -0.289324 0.532799 0.795246 
-89.792183 266.677643 2487.001953 -0.291973 0.528708 0.797007 
-97.341278 270.902161 2481.511475 -0.307526 0.536976 0.785547 
-88.727516 273.051422 2483.143799 -0.281601 0.523873 0.803901 
-85.794067 274.872681 2482.987305 -0.292206 0.522812 0.800802 
-90.061371 263.358582 2489.085205 -0.288834 0.525583 0.800211 
-84.444519 265.281525 2489.867432 -0.289081 0.529193 0.797739 
-1.786052 293.181305 2500.310547 -0.275727 0.553029 0.786215 
0.172089 293.365295 2500.872803 -0.275727 0.553029 0.786215 
-2.577180 286.854401 2504.391357 -0.265431 0.548139 0.793152 
-3.609200 287.610657 2503.521484 -0.268808 0.545477 0.793850 
-3.766814 290.770508 2501.312744 -0.258284 0.546309 0.796766 
2.039414 291.889465 2502.561279 -0.275727 0.553029 0.786215 
4.848927 292.939178 2502.805908 -0.304439 0.655590 0.691027 
6.492431 293.712494 2502.798096 -0.262812 0.564966 0.782140 
0.248626 283.837524 2507.493164 -0.276207 0.550836 0.787585 
2.773345 284.574677 2507.880127 -0.288309 0.590954 0.753426 
-0.308742 278.317413 2511.102783 -0.282074 0.540510 0.792643 
-1.527636 279.007172 2510.211182 -0.279169 0.540989 0.793345 
2.072688 280.300446 2510.596924 -0.279169 0.540989 0.793345 
6.406871 285.963257 2508.179932 -0.275096 0.542333 0.793850 
4.021326 280.926239 2510.858887 -0.274876 0.538758 0.796356 
5.757583 288.499451 2506.232422 -0.269016 0.549044 0.791316 
7.966099 286.883026 2508.115479 -0.285455 0.537791 0.793282 
9.069380 291.582764 2505.198242 -0.272335 0.555689 0.785521 
10.286897 291.670929 2505.547363 -0.265633 0.551699 0.790612 
-99.707863 308.366211 2455.523682 -0.282074 0.540510 0.792643 
-98.201912 306.591858 2457.267578 -0.282074 0.540510 0.792643 
-92.899323 308.719788 2457.688721 -0.282295 0.544089 0.790112 
-93.356674 303.655518 2461.014893 -0.282074 0.540510 0.792643 
-89.685387 308.155121 2459.238037 -0.282295 0.544089 0.790112 
-87.143486 309.674683 2459.091797 -0.279389 0.544571 0.790812 
-91.670525 305.420807 2460.407471 -0.282295 0.544089 0.790112 
-88.320267 304.793732 2462.026367 -0.275784 0.543689 0.792682 
-20.057272 312.097137 2480.622803 -0.299798 0.491292 0.817773 
-17.135693 310.287903 2482.894043 -0.265554 0.560964 0.784092 
-16.180862 312.162781 2481.883057 -0.284985 0.530607 0.798273 
-12.944846 315.886932 2481.671875 -0.386950 0.377551 0.841264 
-6.646959 314.518036 2484.730713 -0.275309 0.331254 0.902483 
-6.277443 316.285431 2484.286133 -0.275309 0.331254 0.902483 
-5.701668 310.786682 2486.481934 -0.268645 0.420422 0.866646 
-4.750622 311.232819 2486.533203 -0.262306 0.419993 0.868793 
-7.493867 294.734344 2497.275146 -0.267925 0.540551 0.797509 
-2.994763 309.913452 2487.982666 -0.297829 0.502685 0.811545 
-1.349417 298.159485 2496.980957 -0.268750 0.554788 0.787390 
-0.046130 301.482971 2495.063477 -0.268944 0.558334 0.784813 
2.403496 301.288788 2496.042969 -0.269609 0.559715 0.783601 
1.363994 309.989136 2489.518311 -0.375451 0.397444 0.837302 
0.236773 307.741333 2490.683594 -0.152553 0.525791 0.836822 
0.432384 306.852356 2491.373535 -0.279603 0.548149 0.788260 
3.364942 303.073975 2495.097168 -0.269317 0.565409 0.779603 
5.843437 305.455017 2494.212158 -0.266392 0.565886 0.780261 
9.029901 305.723450 2495.101562 -0.263329 0.575539 0.774218 
10.828104 306.690826 2494.995117 -0.358166 0.430746 0.828357 
17.458591 260.832367 2529.166992 -0.285223 0.534202 0.795787 
12.532022 236.016647 2543.782471 -0.288105 0.524257 0.801342 
11.857990 242.576462 2539.214600 -0.281847 0.527479 0.801454 
15.061754 243.765091 2539.567139 -0.291947 0.519192 0.803248 
12.945201 239.007431 2541.967529 -0.281847 0.527479 0.801454 
16.291639 242.074661 2541.114746 -0.296342 0.530881 0.793944 
19.238152 243.511627 2541.299805 -0.299476 0.524479 0.797017 
22.382320 243.385376 2542.565918 -0.299476 0.524479 0.797017 
22.127890 244.167526 2541.964111 -0.296093 0.527267 0.796442 
22.155373 242.469833 2543.072510 -0.302039 0.510777 0.804909 
-3.506644 247.644379 2530.486572 -0.293651 0.544445 0.785715 
2.622661 247.422089 2532.806885 -0.281601 0.523873 0.803901 
3.542569 249.405579 2531.834473 -0.281601 0.523873 0.803901 
2.167584 246.449539 2533.280762 -0.281601 0.523873 0.803901 
5.773079 249.546432 2532.518066 -0.281601 0.523873 0.803901 
11.210230 252.880844 2532.203613 -0.288834 0.525583 0.800211 
9.731703 253.442551 2531.302490 -0.288834 0.525583 0.800211 
6.780176 246.379776 2534.944580 -0.285214 0.524731 0.802066 
6.325292 248.623917 2533.314209 -0.285214 0.524731 0.802066 
9.047661 248.602158 2534.283691 -0.281847 0.527479 0.801454 
10.981967 248.603714 2534.970459 -0.282088 0.531081 0.798986 
9.768020 247.037964 2535.587646 -0.284742 0.527009 0.800739 
10.959710 256.399323 2529.798584 -0.277779 0.528879 0.801951 
-0.412014 265.473480 2519.770264 -0.278246 0.536056 0.797009 
-2.192360 265.150604 2519.361572 -0.278246 0.536056 0.797009 
3.439644 268.838135 2518.859619 -0.278944 0.537401 0.795858 
10.794667 269.778015 2520.750732 -0.274876 0.538758 0.796356 
-3.054733 272.692474 2513.981689 -0.282554 0.538274 0.793993 
-0.751273 273.140991 2514.500488 -0.278246 0.536056 0.797009 
3.099508 273.352325 2515.679443 -0.274876 0.538758 0.796356 
1.742981 275.995178 2513.430664 -0.275565 0.540108 0.795203 
5.035271 276.146301 2514.458496 -0.278692 0.543214 0.791990 
8.169405 276.021912 2515.662842 -0.275784 0.543689 0.792682 
7.637460 273.118317 2517.448242 -0.275565 0.540108 0.795203 
9.537951 274.006653 2517.525635 -0.275565 0.540108 0.795203 
-1.758676 262.478088 2521.309326 -0.287852 0.520649 0.803782 
1.338694 263.329926 2521.812500 -0.275113 0.532933 0.800185 
2.115793 263.841766 2521.738770 -0.275113 0.532933 0.800185 
5.406071 263.173187 2523.318604 -0.278015 0.532470 0.799490 
7.601394 263.288849 2524.007568 -0.278715 0.533809 0.798352 
6.367202 267.272034 2520.921631 -0.274651 0.535178 0.798844 
9.924718 232.808777 2544.953369 -0.284242 0.519801 0.805614 
43.812416 222.368332 2649.321777 -0.564915 0.820779 -0.084809 
44.656872 223.433319 2653.945801 -0.566540 0.820556 -0.075634 
48.919376 226.289032 2653.631592 -0.559237 0.825267 -0.078665 
49.246410 226.748627 2656.064941 -0.568946 0.818308 -0.081687 
33.152596 215.959259 2659.479492 -0.566109 0.819634 -0.087869 
34.872307 217.400864 2661.824951 -0.568203 0.818500 -0.084871 
38.473274 219.587006 2659.042969 -0.559237 0.825267 -0.078665 
41.417824 221.418167 2657.051758 -0.564597 0.821882 -0.075756 
40.263641 220.866455 2659.662354 -0.559109 0.825078 -0.081507 
37.727150 219.382629 2661.763672 -0.561622 0.823042 -0.084746 
41.190693 221.697586 2661.621338 -0.562392 0.822838 -0.081568 
40.575680 221.605286 2664.804932 -0.557919 0.826176 -0.078480 
32.923153 216.382095 2665.009766 -0.566867 0.819446 -0.084671 
35.279720 218.124603 2666.114014 -0.563584 0.821714 -0.084609 
32.467667 216.448471 2668.754395 -0.566660 0.820730 -0.072795 
32.604866 216.774231 2672.259766 -0.601752 0.797144 -0.049556 
34.419479 218.004395 2670.614014 -0.576438 0.813878 -0.072949 
38.410271 220.350403 2667.144775 -0.561321 0.824129 -0.075700 
43.464912 224.181717 2670.693359 -0.565963 0.819423 -0.090727 
43.622692 224.297638 2670.780762 -0.565963 0.819423 -0.090727 
41.636677 223.128403 2672.434814 -0.565032 0.819368 -0.096821 
41.844994 223.152008 2671.406494 -0.565963 0.819423 -0.090727 
93.353363 291.388153 2534.686523 -0.258844 0.329039 0.908148 
95.719788 291.860840 2535.192627 -0.350642 0.250878 0.902281 
98.638046 292.949493 2536.273926 -0.397060 0.121208 0.909754 
93.330658 284.243561 2539.553955 -0.276207 0.550836 0.787585 
94.409218 285.796295 2538.846680 -0.276207 0.550836 0.787585 
96.681709 285.254425 2540.018799 -0.268139 0.544118 0.795008 
95.848251 279.586426 2543.533447 -0.228209 0.516151 0.825535 
98.796738 282.756470 2542.390381 -0.273455 0.517221 0.810990 
102.043503 283.227112 2543.272217 -0.296175 0.490490 0.819573 
104.905067 282.690063 2544.627686 -0.275311 0.545903 0.791324 
106.316475 285.854218 2542.947266 -0.301153 0.549724 0.779173 
91.984360 286.178345 2537.723145 -0.276207 0.550836 0.787585 
94.095146 287.050751 2537.853760 -0.276207 0.550836 0.787585 
101.209450 286.970947 2540.399170 -0.282323 0.534680 0.796499 
103.508621 288.570190 2540.189697 -0.372894 0.625871 0.685008 
107.460678 290.071198 2540.969238 -0.326179 0.323173 0.888350 
100.122086 291.709259 2537.130859 -0.411158 0.112894 0.904547 
100.033409 294.050903 2536.792969 -0.411158 0.112894 0.904547 
101.192085 292.395020 2537.497559 -0.411158 0.112894 0.904547 
109.273026 261.190735 2560.533203 -0.240020 0.625934 0.742022 
110.458015 261.608398 2560.681641 -0.265431 0.548139 0.793152 
98.336792 252.861374 2562.620850 -0.579191 0.766436 0.277694 
98.314232 252.033646 2564.860840 -0.540166 0.839162 0.063466 
97.771049 251.866745 2568.601074 -0.566980 0.821485 -0.060798 
98.939751 252.609711 2567.772217 -0.560500 0.825926 -0.060709 
100.362068 254.117599 2563.385986 -0.639430 0.741615 0.202822 
101.658630 254.362747 2565.923584 -0.579506 0.814628 0.023512 
100.141792 253.394287 2567.358154 -0.560654 0.828022 0.006821 
102.198700 256.416412 2561.395508 -0.131790 0.587873 0.798145 
103.992340 257.151337 2561.561035 -0.421584 0.510166 0.749665 
101.773384 254.473923 2567.338379 -0.571982 0.820071 0.017918 
93.099976 248.753555 2570.161865 -0.561919 0.820373 -0.105995 
93.787750 249.209457 2569.961670 -0.570904 0.813283 -0.112429 
97.328537 251.653580 2569.489746 -0.572689 0.815036 -0.087995 
98.837929 252.714661 2569.432861 -0.558461 0.827088 -0.063622 
100.108963 253.640015 2569.853516 -0.567744 0.819439 -0.078655 
105.108856 257.093445 2569.302002 -0.576366 0.809831 -0.109437 
105.191711 257.421997 2571.201172 -0.582227 0.805145 -0.112926 
104.633392 257.232269 2572.722900 -0.582227 0.805145 -0.112926 
92.875496 265.861298 2552.038818 -0.267257 0.529825 0.804897 
92.040527 266.451477 2551.345703 -0.269016 0.549044 0.791316 
95.010246 266.983887 2551.985596 -0.268347 0.547680 0.792488 
97.541389 269.024994 2551.439209 -0.279603 0.548149 0.788260 
101.984497 268.407440 2553.459717 -0.282512 0.547663 0.787561 
94.062180 275.829163 2545.439209 -0.239128 0.526082 0.816122 
98.404015 278.069183 2545.200928 -0.234512 0.507342 0.829221 
107.028091 277.442474 2548.958008 -0.282074 0.540510 0.792643 
100.968643 273.143951 2549.800293 -0.272187 0.542800 0.794533 
105.084984 273.751038 2550.803711 -0.279119 0.550353 0.786895 
107.531120 276.275360 2549.931396 -0.282295 0.544089 0.790112 
100.429359 264.224152 2555.751465 -0.278015 0.532470 0.799490 
101.291122 267.331116 2553.960938 -0.282074 0.540510 0.792643 
103.661407 267.408722 2554.747070 -0.279169 0.540989 0.793345 
104.992699 268.861450 2554.229980 -0.282512 0.547663 0.787561 
105.061005 269.930359 2553.491943 -0.283426 0.552601 0.783774 
106.291878 269.756805 2554.059326 -0.275522 0.549469 0.788779 
88.424500 246.367783 2577.276611 -0.571137 0.817341 -0.075865 
89.332344 247.213379 2580.055176 -0.573183 0.816178 -0.072899 
88.733002 246.786789 2579.991943 -0.573183 0.816178 -0.072899 
90.307297 248.707123 2588.603027 -0.581664 0.807947 -0.094285 
87.341637 246.811676 2590.638428 -0.575483 0.813713 -0.081802 
86.533913 246.457230 2592.732178 -0.575616 0.813900 -0.078950 
89.479401 248.233612 2589.649170 -0.575483 0.813713 -0.081802 
78.657631 241.004425 2593.114746 -0.567869 0.819620 -0.075811 
-62.108555 153.045319 2680.494385 -0.586849 0.804200 -0.094186 
80.593346 242.373795 2593.448242 -0.567869 0.819620 -0.075811 
76.552132 239.966583 2597.513916 -0.565671 0.820581 -0.081628 
78.833534 241.499283 2597.108154 -0.572217 0.816018 -0.081745 
76.592812 240.167236 2599.406494 -0.568062 0.818297 -0.087726 
76.308228 240.081100 2600.471924 -0.568062 0.818297 -0.087726 
79.224945 242.118073 2600.339844 -0.570146 0.817162 -0.084732 
80.104576 242.712372 2600.197021 -0.571345 0.816001 -0.087788 
78.600372 241.942566 2602.807373 -0.569255 0.817133 -0.090793 
80.585518 243.338943 2602.827637 -0.567302 0.818473 -0.090941 
82.415421 244.509293 2602.092529 -0.565963 0.819423 -0.090727 
81.524559 244.297440 2605.626465 -0.565963 0.819423 -0.090727 
82.205933 244.923340 2607.211670 -0.560696 0.823027 -0.090807 
84.509575 245.873642 2601.412598 -0.564001 0.820759 -0.090875 
57.793930 230.452805 2633.583740 -0.551586 0.829527 -0.087394 
58.704407 231.207321 2635.017822 -0.551586 0.829527 -0.087394 
58.402794 231.344116 2638.224854 -0.566867 0.819446 -0.084671 
60.088314 229.607849 2610.679443 -0.591215 0.797624 -0.119422 
64.029747 232.517944 2610.757080 -0.571011 0.817161 -0.078711 
64.979240 233.325226 2612.132812 -0.573061 0.816005 -0.075741 
67.068283 234.628784 2610.452637 -0.574400 0.815047 -0.075918 
60.783669 230.516602 2613.217529 -0.583735 0.806800 -0.091254 
62.709095 232.153244 2616.835205 -0.569924 0.818462 -0.072847 
64.932236 233.496918 2614.312988 -0.573183 0.816178 -0.072899 
65.205200 233.807831 2615.961426 -0.568709 0.819568 -0.069841 
69.092369 236.262665 2612.629150 -0.574400 0.815047 -0.075918 
70.777908 237.289795 2610.917236 -0.573061 0.816005 -0.075741 
74.288498 239.673248 2610.126221 -0.569522 0.819487 -0.063911 
73.256371 239.084244 2611.680176 -0.571437 0.818162 -0.063808 
60.537357 230.708939 2617.499268 -0.569924 0.818462 -0.072847 
62.251358 232.278366 2621.506836 -0.565671 0.820581 -0.081628 
61.172581 231.808640 2624.142090 -0.568203 0.818500 -0.084871 
63.712948 233.346802 2621.997559 -0.568062 0.818297 -0.087726 
66.479637 235.513474 2624.249756 -0.568203 0.818500 -0.084871 
68.881279 237.135681 2623.996582 -0.564915 0.820779 -0.084809 
73.642288 240.129089 2620.778320 -0.570283 0.817357 -0.081879 
73.592934 240.346451 2623.689453 -0.583589 0.809034 -0.069917 
-59.315128 154.645203 2675.060547 -0.451308 0.848706 -0.275714 
-56.992832 156.472137 2676.890381 -0.565671 0.820581 -0.081628 
-237.331711 227.932190 2638.481201 0.610241 0.586575 0.532481 
-232.680176 223.108185 2638.276855 0.647562 0.563463 0.513004 
-262.011658 226.882523 2669.554688 0.681400 0.618705 0.391021 
-230.145157 212.601547 2646.823486 0.645353 0.571213 0.507183 
-234.357941 211.075363 2653.158203 0.641437 0.493283 0.587563 
-236.764389 212.863525 2654.288574 0.635655 0.507512 0.581700 
-237.403168 211.149200 2656.421387 0.635113 0.496972 0.591312 
-246.654739 227.341629 2650.585693 0.637312 0.586865 0.499424 
-247.334503 225.064316 2654.140137 0.650037 0.576131 0.495506 
-246.990891 223.149841 2655.891113 0.546142 0.617158 0.566432 
-246.797852 222.714828 2656.176758 0.546142 0.617158 0.566432 
-251.099243 227.185318 2656.355225 0.634566 0.580704 0.510009 
-230.459229 285.464233 2563.935303 0.649216 0.588824 0.481460 
-233.430786 284.839691 2568.592041 0.569280 0.626715 0.532117 
-237.462952 292.957001 2563.892578 0.632390 0.585172 0.507599 
-237.692062 290.042084 2567.857422 0.636685 0.596368 0.488853 
-231.861526 289.055237 2561.621094 0.629426 0.582177 0.514678 
-235.504532 293.091736 2561.394287 0.618456 0.591494 0.517346 
-234.542450 289.998566 2563.790527 0.621439 0.594493 0.510287 
-234.108047 287.708740 2565.930420 0.641001 0.593893 0.486219 
-235.985077 290.387512 2565.118164 0.637117 0.590048 0.495909 
-240.158600 285.536316 2575.949463 0.632822 0.575446 0.518071 
-238.154312 285.235229 2573.910156 0.619958 0.582794 0.525360 
-233.883133 282.564178 2571.760010 0.625987 0.588866 0.511251 
-235.044601 279.496246 2576.732178 0.627478 0.597197 0.499627 
-241.052475 291.524200 2570.317871 0.628532 0.598200 0.497096 
-55.044361 157.586502 2675.076660 -0.551722 0.829732 -0.084550 
-233.336609 301.984833 2548.562988 0.634566 0.580704 0.510009 
-231.518204 302.017029 2546.220703 0.642136 0.574720 0.507304 
-231.671280 297.773499 2551.416016 0.630964 0.590582 0.503088 
-232.785309 298.954193 2551.425781 0.621439 0.594493 0.510287 
-235.647705 301.849792 2551.524414 0.628460 0.577914 0.520628 
-236.576553 301.574677 2552.980713 0.651960 0.557619 0.513818 
-236.550522 304.286682 2550.042969 0.639485 0.561870 0.524749 
-236.091141 301.853241 2552.068115 0.628460 0.577914 0.520628 
-236.748383 296.887177 2558.665771 0.619689 0.589296 0.518378 
-241.016907 301.093140 2559.305420 0.659705 0.562344 0.498556 
-238.409668 299.127930 2558.057861 0.638569 0.584653 0.500409 
-239.768661 301.657135 2556.980957 0.659705 0.562344 0.498556 
-233.572479 295.484009 2556.412354 0.625190 0.581376 0.520711 
-232.553925 295.857269 2554.762451 0.621439 0.594493 0.510287 
-232.371460 295.470123 2554.980713 0.629275 0.585412 0.511181 
-234.984573 296.347656 2557.143555 0.622995 0.585852 0.518319 
-235.938797 295.251343 2559.499756 0.623130 0.582602 0.521808 
-237.399475 304.029449 2551.316406 0.639485 0.561870 0.524749 
-239.686523 303.002960 2555.394287 0.650360 0.569695 0.502474 
-246.162537 300.391876 2566.871338 0.658429 0.540552 0.523712 
-245.617706 296.986481 2569.555176 0.694509 0.510423 0.507076 
-247.332977 296.802094 2572.079590 0.659557 0.565574 0.495087 
-247.200500 294.389374 2574.588379 0.626415 0.579138 0.521731 
-231.242508 260.105927 2594.382324 0.620170 0.576235 0.532299 
-235.454895 259.923737 2599.893799 0.628032 0.587623 0.510171 
-234.093567 258.323578 2600.064941 0.628032 0.587623 0.510171 
-233.390305 252.790405 2605.507080 0.650037 0.576131 0.495506 
-232.044846 248.538651 2608.698975 0.635807 0.578466 0.511006 
-230.700958 248.363556 2607.136963 0.639049 0.574975 0.510902 
-237.395309 260.960236 2601.088867 0.628739 0.595026 0.500631 
-239.371597 260.048309 2604.645508 0.620847 0.604022 0.499706 
-239.274673 260.247345 2604.310791 0.620847 0.604022 0.499706 
-241.966400 260.483246 2607.361328 0.625816 0.592079 0.507737 
-262.723206 288.934875 2599.801758 0.650830 0.556653 0.516292 
-264.514008 291.284393 2599.982910 0.740708 0.530485 0.412234 
-260.868866 281.923126 2605.667480 0.622995 0.585852 0.518319 
-261.611908 280.746552 2607.942871 0.625190 0.581376 0.520711 
-262.867645 284.209045 2605.546631 0.624906 0.587850 0.513737 
-266.794037 286.693512 2607.458740 0.639704 0.545183 0.541807 
-269.328156 288.733887 2608.774658 0.688093 0.540764 0.483841 
-268.992889 290.796844 2605.985840 0.579522 0.620071 0.528835 
-266.505310 289.972778 2604.228271 0.599099 0.534970 0.595724 
-263.165009 286.613770 2603.122559 0.619181 0.598935 0.507830 
-262.429474 287.773590 2600.776611 0.650830 0.556653 0.516292 
-230.515213 273.855560 2577.757324 0.635113 0.591312 0.496972 
-234.358337 277.626373 2578.102783 0.621439 0.594493 0.510287 
-233.155472 275.519562 2579.139404 0.625816 0.592079 0.507737 
-235.990540 274.419678 2583.680420 0.635272 0.557759 0.534168 
-234.460083 274.720581 2581.545654 0.606486 0.599728 0.522017 
-236.448166 267.133240 2592.745850 0.632390 0.585172 0.507599 
-231.506226 265.727570 2588.427002 0.606486 0.599728 0.522017 
-232.715775 264.001129 2591.821289 0.618604 0.588264 0.520841 
-233.673004 266.299377 2590.324463 0.616516 0.589491 0.521927 
-240.011627 277.492340 2585.173828 0.637947 0.573984 0.513387 
-240.415070 275.501495 2587.902832 0.631593 0.577697 0.517064 
-237.908310 274.918518 2585.439453 0.632031 0.591581 0.500569 
-243.184036 276.841309 2589.771729 0.616516 0.589491 0.521927 
-242.504135 274.714600 2591.332764 0.616650 0.586240 0.525420 
-236.868088 271.477722 2588.336670 0.621890 0.605037 0.497175 
-253.138641 291.855774 2584.607422 0.609447 0.548671 0.572306 
-247.007584 289.894623 2579.440186 0.618456 0.591494 0.517346 
-250.272598 292.147797 2580.674805 0.610794 0.614159 0.499740 
-249.200760 288.399933 2583.845947 0.622315 0.598704 0.504260 
-245.447037 286.712769 2581.222656 0.634681 0.597644 0.489900 
-251.468079 290.657349 2583.976318 0.624170 0.600616 0.499672 
-252.257309 285.591553 2590.961182 0.616017 0.565386 0.548509 
-243.645248 281.075287 2585.715576 0.622541 0.555057 0.551683 
-244.991257 282.162170 2586.099609 0.476710 0.298530 0.826818 
-250.864853 284.063019 2590.978760 0.625190 0.581376 0.520711 
-249.582016 283.054962 2590.581787 0.613916 0.566562 0.549650 
-254.218353 287.360657 2591.339111 0.622995 0.585852 0.518319 
-255.987228 289.358124 2591.141113 0.620071 0.579522 0.528835 
-257.327393 292.832123 2589.050049 0.655351 0.540791 0.527314 
-244.562195 268.178711 2601.362061 0.619865 0.616506 0.485477 
-246.866608 271.332733 2600.270020 0.598459 0.625431 0.500682 
-246.285645 271.187958 2599.597412 0.598459 0.625431 0.500682 
-245.111038 266.821014 2603.769287 0.630343 0.600086 0.492508 
-247.579285 266.554718 2607.244873 0.645353 0.571213 0.507183 
-246.960922 267.765594 2605.044922 0.631386 0.601079 0.489955 
-253.085815 274.497192 2604.652344 0.632822 0.575446 0.518071 
-249.429169 270.939575 2604.273193 0.637485 0.600480 0.482739 
-252.889511 275.241852 2603.586670 0.632822 0.575446 0.518071 
-252.666595 270.820709 2608.558105 0.621439 0.594493 0.510287 
-268.892303 261.744232 2638.449219 0.614688 0.618056 0.490066 
-261.400574 256.438782 2635.464111 0.624991 0.604776 0.493591 
-264.698303 261.495056 2633.294678 0.656200 0.589070 0.471591 
-263.838715 257.580353 2637.210205 0.630885 0.607332 0.482837 
-262.331085 255.024445 2638.451416 0.625218 0.601625 0.497141 
-266.984497 260.933655 2637.083008 0.625991 0.615922 0.478304 
-230.317429 245.407059 2610.057617 0.637658 0.580454 0.506425 
-230.201431 243.981415 2611.532959 0.637947 0.573984 0.513387 
-233.884827 244.790588 2615.217773 0.639398 0.565167 0.521303 
-235.450531 245.057281 2616.857666 0.639398 0.565167 0.521303 
-231.861008 243.115067 2614.537842 0.641473 0.560658 0.523617 
-232.212997 244.193146 2613.813477 0.639296 0.568450 0.517846 
-233.023804 234.903656 2625.162109 0.638903 0.578216 0.507414 
-243.811432 247.091599 2623.795654 0.541671 0.615919 0.572045 
-239.241638 245.732010 2620.594238 0.602667 0.585785 0.541893 
-239.671570 243.645828 2623.282959 0.651029 0.546730 0.526543 
-232.058533 240.695618 2617.279053 0.636415 0.558762 0.531753 
-234.438797 243.294220 2617.492920 0.641546 0.557354 0.527044 
-236.813812 244.864517 2618.730469 0.636350 0.562081 0.528322 
-235.401123 238.529984 2623.993164 0.641815 0.581171 0.500313 
-244.792191 256.542999 2615.186035 0.621608 0.591285 0.513795 
-247.071228 258.366669 2615.844238 0.625218 0.601625 0.497141 
-244.835480 251.051590 2620.704102 0.586160 0.555754 0.589538 
-244.824936 247.013016 2624.771729 0.642493 0.625804 0.442235 
-246.625671 249.334000 2624.276611 0.637810 0.577226 0.509911 
-246.538391 250.473679 2622.768066 0.633328 0.542128 0.552262 
-244.906540 250.368225 2621.430664 0.576222 0.579601 0.576222 
-246.971725 252.727844 2621.389404 0.648414 0.503573 0.570941 
-253.202667 257.820862 2623.992188 0.622995 0.585852 0.518319 
-248.197540 256.287750 2619.780273 0.699006 0.518833 0.492141 
-249.073547 258.315796 2618.424072 0.623951 0.603769 0.496133 
-252.514343 260.671692 2619.884521 0.621904 0.584826 0.520782 
-252.490738 257.927948 2622.979248 0.621608 0.591285 0.513795 
-248.437286 254.509933 2621.892334 0.683504 0.476280 0.553154 
-244.217056 235.294235 2637.885010 0.641692 0.544006 0.540638 
-246.016800 236.564041 2638.792480 0.673620 0.535873 0.508995 
-246.640121 241.838547 2634.210938 0.629885 0.569092 0.528563 
-244.683319 240.252823 2633.622314 0.626629 0.572580 0.528666 
-245.389465 238.114044 2636.728516 0.636524 0.541974 0.548727 
-248.174698 241.189240 2636.809570 0.635056 0.567676 0.523879 
-250.405380 245.324539 2634.888184 0.632549 0.581945 0.511099 
-249.243790 245.688980 2632.992920 0.634408 0.583924 0.506517 
-246.004852 238.628281 2636.926514 0.636524 0.541974 0.548727 
-248.778168 241.625076 2637.053955 0.632822 0.575446 0.518071 
-251.666107 243.880447 2638.073486 0.629562 0.578927 0.518165 
-250.405945 242.530350 2638.023926 0.629562 0.578927 0.518165 
-264.778076 269.659180 2624.357422 0.616650 0.586240 0.525420 
-262.617737 267.231049 2624.495117 0.620071 0.579522 0.528835 
-268.711853 278.012115 2619.693115 0.623251 0.579337 0.525288 
-270.418457 277.404999 2622.308594 0.623251 0.579337 0.525288 
-270.393341 276.285095 2623.593506 0.623130 0.582602 0.521808 
-272.532990 278.571533 2623.553711 0.624906 0.587850 0.513737 
-267.327545 275.697205 2620.572021 0.623251 0.579337 0.525288 
-278.000763 285.871033 2622.814697 0.675449 0.507844 0.534661 
-277.629059 276.530762 2632.124023 0.622315 0.598704 0.504260 
-279.529510 276.898224 2634.023682 0.618056 0.614688 0.490066 
-279.676086 276.221375 2635.047607 0.618056 0.614688 0.490066 
-297.121613 262.404175 2671.855957 0.602667 0.585785 0.541893 
-292.330994 259.221771 2669.963379 0.609843 0.596329 0.521999 
-293.964508 273.809265 2655.190918 0.730306 0.448782 0.515023 
-296.540253 277.021790 2655.755615 0.719167 0.453424 0.526503 
-294.319397 275.406067 2654.384766 0.730306 0.448782 0.515023 
-294.887756 275.699249 2654.974121 0.730306 0.448782 0.515023 
-263.894043 245.652054 2651.021484 0.619365 0.595738 0.511355 
-260.832886 242.385803 2651.082031 0.624743 0.591064 0.510235 
-262.533783 245.949890 2649.019531 0.625631 0.595277 0.504214 
-267.391144 246.720306 2653.925537 0.618295 0.594709 0.513842 
-263.017944 243.089706 2652.936035 0.625816 0.592079 0.507737 
-276.510895 258.210175 2651.682373 0.616875 0.579694 0.532372 
-277.306702 255.017914 2656.112793 0.580450 0.553374 0.597373 
-281.023346 245.446442 2672.343018 0.621255 0.597685 0.506769 
-100.526993 141.703506 2627.525146 0.331557 0.872437 -0.359059 
-106.064827 149.422852 2640.863281 0.348726 0.864903 -0.361016 
-242.274002 244.833649 2737.448242 0.570359 0.654483 -0.496330 
-100.425415 146.908493 2640.186279 0.333747 0.873229 -0.355083 
-127.827164 158.196671 2640.808105 0.332150 0.878149 -0.344283 
-118.358917 154.238724 2640.466064 0.349112 0.865860 -0.358340 
-239.074722 243.163452 2737.415039 0.375391 0.840311 -0.391098 
-118.948441 154.470749 2640.458252 0.349112 0.865860 -0.358340 
-132.289459 159.269745 2639.579834 0.328415 0.858813 -0.393173 
-131.051239 159.356613 2640.664062 0.322803 0.840536 -0.435083 
-73.769180 229.327286 2517.373779 -0.284962 0.521119 0.804507 
-233.021851 240.508255 2736.933105 0.361587 0.863192 -0.352355 
-68.519753 229.033310 2519.388184 -0.291468 0.521491 0.801931 
-234.234726 241.160477 2737.289795 0.364457 0.865778 -0.342928 
14.933399 229.065018 2549.142334 -0.291682 0.515568 0.805674 
22.236696 228.144775 2552.415527 -0.280639 0.518947 0.807425 
26.574947 220.409439 2558.820068 -0.277539 0.525285 0.804392 
26.476086 219.409149 2559.437500 -0.277539 0.525285 0.804392 
27.065395 219.228821 2559.765869 -0.277539 0.525285 0.804392 
27.239595 227.517090 2554.497314 -0.290397 0.507018 0.811543 
-233.682861 244.659958 2743.730713 0.505555 0.795811 -0.333316 
26.335274 202.687561 2573.366943 -0.540122 0.822972 -0.176029 
26.503994 203.060501 2575.635742 -0.596626 0.796953 -0.094357 
27.689386 203.900787 2575.620361 -0.526243 0.843431 -0.108132 
-232.976410 245.924179 2747.927246 0.243233 0.925992 -0.288750 
-102.133217 329.086609 2440.289062 -0.272400 0.546374 0.792006 
-100.646156 327.334839 2442.016113 -0.282512 0.547663 0.787561 
-101.259926 327.823944 2441.466797 -0.272400 0.546374 0.792006 
-102.139084 310.764069 2453.031494 -0.279169 0.540989 0.793345 
-101.333344 312.326447 2452.245850 -0.278692 0.543214 0.791990 
-83.422462 232.518890 2511.760742 -0.289521 0.545818 0.786295 
-74.981995 237.763458 2511.436768 -0.285214 0.524731 0.802066 
-70.967995 240.935867 2510.807617 -0.288581 0.521968 0.802664 
2.555420 279.468353 2511.340332 -0.282074 0.540510 0.792643 
-248.178131 249.611877 2737.971436 0.324291 0.784370 -0.528771 
27.494497 244.722519 2543.489258 -0.271518 0.532050 0.801998 
58.350548 231.411728 2639.196777 -0.566867 0.819446 -0.084671 
-229.623871 214.992752 2677.784668 0.349585 0.871672 -0.343479 
-228.334549 215.564545 2680.511719 0.364650 0.863160 -0.349264 
-253.402878 229.737656 2690.006348 0.362715 0.859712 -0.359628 
-253.178848 229.416870 2689.438965 0.360030 0.860672 -0.360030 
-246.264893 228.578873 2694.402344 0.348726 0.864903 -0.361016 
-246.114349 230.255936 2698.528076 0.357954 0.864927 -0.351809 
-189.769058 229.556458 2753.364014 0.349112 0.865860 -0.358340 
-185.969238 229.121597 2755.959961 0.348565 0.867574 -0.354707 
-182.926010 230.183380 2761.690918 0.348184 0.866627 -0.357388 
-181.199936 229.477402 2761.620361 0.349112 0.865860 -0.358340 
26.835718 214.299179 2684.830322 -0.568594 0.819402 -0.072677 
-30.584442 183.493103 2766.909424 -0.558188 0.825085 -0.087531 
-29.021984 184.619400 2767.552734 -0.558188 0.825085 -0.087531 
-21.393946 189.909729 2768.086182 -0.574412 0.811193 -0.109621 
54.156605 228.963531 2644.017578 -0.569077 0.818496 -0.078839 
55.085812 229.716812 2645.140869 -0.569077 0.818496 -0.078839 
51.839634 227.657410 2647.144043 -0.568946 0.818308 -0.081687 
52.486481 228.480621 2650.864258 -0.559109 0.825078 -0.081507 
53.161877 229.054611 2651.968262 -0.560696 0.823027 -0.090807 
51.824131 228.214325 2653.134033 -0.568946 0.818308 -0.081687 
-57.587238 156.268555 2679.496582 -0.577120 0.813669 -0.069824 
-115.453720 225.661713 2504.411377 -0.303120 0.525302 0.795095 
-113.146873 227.761734 2503.917969 -0.309381 0.521981 0.794871 
-107.207809 221.317581 2510.380371 -0.301550 0.513109 0.803608 
-114.970810 222.622986 2506.594238 -0.302356 0.523979 0.796258 
-116.083130 224.560349 2504.899902 -0.299476 0.524479 0.797017 
-113.806297 223.074738 2506.745361 -0.303120 0.525302 0.795095 
-110.730553 222.159668 2508.525391 -0.305685 0.511587 0.803017 
