ply
format ascii 1.0
comment Created by CloudCompare v2.12.0 (Kyiv)
comment Created 2023-05-18T22:36:10
obj_info Generated by CloudCompare!
element vertex 745
property float x
property float y
property float z
property float nx
property float ny
property float nz
end_header
-139.365692 -190.466980 3839.852783 0.393634 0.842157 -0.368542 
-139.012115 -190.566483 3840.005371 0.393634 0.842157 -0.368542 
-124.260201 -202.418137 3825.560547 0.369849 0.858854 -0.354374 
-21.710079 -207.189896 3901.334961 -0.564238 0.819523 -0.100083 
-117.737610 -203.886368 3828.602539 0.374396 0.861266 -0.343582 
-116.492081 -203.448181 3831.045898 0.371742 0.862257 -0.343977 
-116.404877 -202.677628 3833.082764 0.371934 0.859614 -0.350327 
-70.221397 -186.630310 3920.976807 0.343136 0.881269 -0.324996 
-90.153038 -178.144653 3921.849121 0.357193 0.869220 -0.341863 
-161.677353 -184.828629 3829.494141 0.370012 0.856137 -0.360723 
-162.925323 -183.466019 3831.467773 0.369269 0.860598 -0.350729 
-87.636765 -178.766205 3922.890137 0.356243 0.869967 -0.340953 
-161.880829 -183.193130 3833.270996 0.369269 0.860598 -0.350729 
-156.792175 -185.159515 3833.915039 0.368097 0.864027 -0.343455 
-160.528229 -181.019730 3840.050049 0.370545 0.865631 -0.336720 
-153.714081 -184.984436 3837.575684 0.291573 0.880762 -0.373153 
-149.363602 -186.155685 3839.256836 0.365041 0.864085 -0.346558 
-196.783585 -157.237350 3860.281738 0.380867 0.861962 -0.334608 
-102.616020 -179.537582 3905.248291 0.364457 0.865778 -0.342928 
-114.660309 -174.856995 3905.199219 0.347061 0.880535 -0.322812 
-113.813202 -175.111450 3905.353760 0.327175 0.891889 -0.312236 
-111.313225 -175.098648 3907.690430 0.312114 0.885078 -0.345286 
-110.686134 -174.882736 3908.756836 0.316184 0.881987 -0.349467 
-110.254890 -175.451263 3907.634521 0.322812 0.880535 -0.347061 
-109.921356 -174.691498 3909.893799 0.326047 0.878052 -0.350311 
-109.412216 -174.636841 3910.551025 0.350705 0.868339 -0.350705 
-115.056099 -173.057114 3909.356445 0.341819 0.876577 -0.338781 
-114.192108 -173.608093 3908.971680 0.329101 0.878109 -0.347300 
-90.807610 -176.271500 3925.839111 0.361016 0.864903 -0.348726 
-110.489700 -173.524368 3912.221191 0.358907 0.864150 -0.352746 
-105.327423 -177.899734 3906.484375 0.357768 0.867550 -0.345484 
-106.579819 -177.057159 3907.289062 0.349585 0.871672 -0.343479 
-88.713737 -176.248901 3928.063965 0.357388 0.866627 -0.348184 
-105.350052 -176.351044 3910.353760 0.352054 0.873278 -0.336814 
-107.177963 -175.069138 3911.848145 0.359281 0.869918 -0.337877 
-107.885323 -174.955963 3911.372314 0.356817 0.868306 -0.344566 
-103.151360 -177.757004 3908.988281 0.361402 0.865827 -0.346023 
-92.788483 -173.557236 3930.529785 0.357954 0.864927 -0.351809 
-109.581451 -173.397018 3913.489014 0.364072 0.864862 -0.345638 
-104.601074 -175.339066 3913.846680 0.353198 0.869999 -0.344024 
-97.924294 -170.801102 3932.102051 0.361978 0.864126 -0.349655 
-104.975021 -174.079773 3916.493164 0.362153 0.861462 -0.355989 
-106.343895 -172.760941 3918.307373 0.371146 0.863954 -0.340345 
-95.283745 -172.006119 3931.861084 0.367739 0.871283 -0.325014 
-131.329453 -167.084747 3906.270020 0.371742 0.862257 -0.343977 
-131.340790 -166.467651 3907.842041 0.370545 0.865631 -0.336720 
-128.846970 -167.857803 3907.010498 0.370160 0.864732 -0.339442 
-129.816376 -165.896011 3911.009521 0.369561 0.866398 -0.335825 
-88.595848 -175.560654 3929.881104 0.354327 0.866643 -0.351259 
-119.559700 -170.159073 3911.314697 0.361402 0.865827 -0.346023 
-84.993423 -177.265747 3929.312744 0.354327 0.866643 -0.351259 
-88.100121 -174.857864 3932.116699 0.357954 0.864927 -0.351809 
-126.173347 -165.386612 3916.172363 0.382097 0.858558 -0.341876 
-129.370926 -163.413010 3917.549561 0.382097 0.858558 -0.341876 
-126.232674 -164.316040 3918.797852 0.373094 0.856104 -0.357613 
-88.490692 -174.046448 3933.718262 0.355271 0.865876 -0.352195 
-120.940781 -167.309219 3916.784912 0.367505 0.865712 -0.339827 
-117.335060 -169.726379 3914.586670 0.360030 0.860672 -0.360030 
-119.182899 -168.443680 3915.800293 0.371146 0.863954 -0.340345 
-121.283073 -167.077042 3917.010010 0.367505 0.865712 -0.339827 
-142.800613 -155.920746 3922.358154 0.348452 0.889823 -0.294614 
-140.721313 -156.834457 3922.053711 0.350705 0.868339 -0.350705 
-91.678177 -172.080887 3935.338135 0.363277 0.869106 -0.335686 
-135.066437 -159.503082 3921.270020 0.359863 0.868266 -0.341487 
-135.437653 -158.470184 3923.530762 0.356613 0.870871 -0.338247 
-133.118317 -159.134171 3924.284424 0.360442 0.866594 -0.345104 
13.621469 -178.420944 3939.987549 -0.607982 0.786715 -0.106946 
-132.947968 -157.823380 3927.705078 0.361978 0.864126 -0.349655 
17.585051 -175.738922 3940.846436 -0.550931 0.828565 -0.099775 
19.011925 -174.826843 3940.541260 -0.548669 0.828097 -0.114973 
17.593147 -175.679611 3941.273193 -0.550931 0.828565 -0.099775 
18.698416 -174.923752 3941.467773 -0.550931 0.828565 -0.099775 
24.024910 -171.700516 3939.202881 -0.557429 0.823836 -0.102799 
23.980619 -171.514191 3940.959229 -0.537628 0.836148 -0.108685 
11.795512 -178.669815 3947.031006 -0.529653 0.843732 -0.087086 
15.170941 -176.483215 3947.666260 -0.532930 0.840334 -0.099116 
16.482464 -175.532639 3948.428467 -0.539683 0.834845 -0.108515 
12.009687 -177.973587 3952.026367 -0.583356 0.808056 -0.082102 
22.473038 -171.920609 3945.209717 -0.537456 0.835882 -0.111547 
24.210556 -170.762115 3945.551758 -0.539891 0.833847 -0.114963 
25.371288 -169.471786 3949.373535 -0.548669 0.828097 -0.114973 
-3.466380 -186.170624 3969.942139 -0.584429 0.806656 -0.088025 
-3.103343 -185.989609 3969.287842 -0.579101 0.810163 -0.090981 
-212.161591 -153.106003 3854.210205 0.373506 0.857049 -0.354908 
-20.217030 -185.349762 3975.147705 0.361135 0.857115 -0.367335 
-17.899874 -185.726501 3976.559814 0.363826 0.856153 -0.366923 
-18.994505 -184.626770 3978.062500 0.361135 0.857115 -0.367335 
-17.902899 -185.030319 3978.212891 0.371561 0.853503 -0.365343 
-214.689453 -150.210968 3858.554932 0.377833 0.862077 -0.337737 
-212.401230 -151.732574 3857.282959 0.372922 0.858805 -0.351259 
-219.654343 -148.186310 3858.239746 0.372965 0.867182 -0.329989 
-219.976028 -147.270233 3860.279785 0.374187 0.863863 -0.337230 
-214.765503 -149.710220 3859.749268 0.377833 0.862077 -0.337737 
-215.863678 -149.007431 3860.365723 0.372586 0.866301 -0.332721 
-213.659119 -148.968521 3862.923584 0.376219 0.864536 -0.333222 
-227.613800 -143.701401 3861.023926 0.364457 0.865778 -0.342928 
-227.892685 -142.595901 3863.515137 0.364457 0.865778 -0.342928 
-221.977020 -145.638794 3862.181885 0.369269 0.860598 -0.350729 
-224.138443 -144.416748 3862.904541 0.368097 0.864027 -0.343455 
-5.869931 -186.395935 3982.208496 -0.331610 0.879751 -0.340695 
-212.466354 -147.997543 3866.810791 0.371742 0.862257 -0.343977 
-215.045242 -146.466339 3867.721680 0.371742 0.862257 -0.343977 
0.891122 -185.400970 3952.968262 -0.555260 0.824916 -0.105833 
-212.446487 -147.570053 3867.834473 0.370995 0.855307 -0.361681 
-212.608383 -147.025284 3868.964600 0.370995 0.855307 -0.361681 
-225.929749 -142.133560 3866.764893 0.377438 0.861176 -0.340465 
-223.981247 -142.506302 3868.024414 0.376219 0.864536 -0.333222 
-220.979156 -143.385101 3869.135986 0.377220 0.863757 -0.334109 
-225.659546 -141.014603 3869.992920 0.380245 0.863634 -0.330983 
-223.027359 -141.965378 3870.479736 0.377220 0.863757 -0.334109 
-224.178970 -141.246033 3871.063232 0.376219 0.864536 -0.333222 
-219.722321 -143.837067 3869.363525 0.371347 0.861339 -0.346693 
-216.689713 -144.446045 3871.094971 0.367505 0.865712 -0.339827 
-178.693161 -137.071213 3931.210449 0.359863 0.868266 -0.341487 
-176.923309 -135.486816 3936.819824 0.373094 0.856104 -0.357613 
4.074852 -182.426605 3959.107910 -0.552274 0.824748 -0.121588 
-169.912292 -138.213806 3937.859375 0.362081 0.872356 -0.328470 
3.907474 -182.438263 3959.746582 -0.552274 0.824748 -0.121588 
-167.250580 -139.311264 3937.792236 0.361587 0.863192 -0.352355 
-165.899780 -140.069992 3937.346924 0.361016 0.864903 -0.348726 
6.937578 -180.361954 3960.073486 -0.555559 0.823861 -0.112278 
-165.605576 -139.465500 3939.228516 0.386369 0.854977 -0.346025 
-164.494568 -138.555115 3942.742188 0.267763 0.908638 -0.320438 
8.380818 -179.612946 3957.796143 -0.549587 0.830838 -0.087532 
11.689319 -177.516541 3957.184082 -0.545407 0.831854 -0.102716 
8.711403 -179.144852 3960.095947 -0.551929 0.828614 -0.093669 
-2.100032 -186.171478 3962.754150 -0.567577 0.815619 -0.112348 
2.130665 -183.133575 3963.166992 -0.561020 0.818826 -0.121579 
2.327004 -182.445633 3967.051514 -0.564428 0.818202 -0.109385 
5.727908 -180.535721 3964.153564 -0.548704 0.826714 -0.124373 
8.817282 -178.819931 3962.427490 -0.546443 0.829137 -0.118032 
5.401986 -180.378159 3966.914062 -0.558909 0.821581 -0.112365 
10.190626 -177.192566 3968.271973 -0.543262 0.831642 -0.115061 
-47.100319 -168.965332 3988.609131 0.359863 0.868266 -0.341487 
-44.760799 -170.504578 3987.104736 0.362902 0.868209 -0.338402 
-51.292496 -166.846603 3989.594238 0.358340 0.865860 -0.349112 
-162.398224 -147.797180 3921.616699 0.352054 0.873278 -0.336814 
-46.576996 -169.002472 3989.069336 0.359863 0.868266 -0.341487 
-157.970184 -149.216095 3922.744385 0.365934 0.868135 -0.335312 
-162.132370 -146.447693 3925.375000 0.374187 0.863863 -0.337230 
-156.423279 -147.575806 3928.676025 0.374992 0.859548 -0.347214 
-151.171051 -152.259155 3922.365234 0.368685 0.862323 -0.347089 
-44.046574 -169.059311 3991.535156 0.361016 0.864903 -0.348726 
-151.995972 -150.770660 3925.187012 0.368685 0.862323 -0.347089 
-50.855087 -165.069901 3994.402344 0.364650 0.863160 -0.349264 
-163.541656 -145.192078 3927.028564 -0.085792 0.757585 -0.647074 
-156.921860 -146.675613 3930.367676 0.374992 0.859548 -0.347214 
-48.524136 -165.718323 3995.225586 0.364650 0.863160 -0.349264 
-51.293106 -163.936020 3996.741699 0.354885 0.864936 -0.354885 
-156.074081 -147.019012 3930.430420 0.374992 0.859548 -0.347214 
-149.808746 -149.891083 3930.159912 0.388928 0.870893 -0.300466 
-160.432053 -144.687317 3931.496338 0.402822 0.871007 -0.281215 
-162.830353 -143.171677 3932.753418 0.365335 0.869771 -0.331705 
-157.439621 -143.987930 3936.487549 0.367505 0.865712 -0.339827 
-43.174271 -167.386917 3996.577148 0.354327 0.866643 -0.351259 
-40.116829 -169.669739 3994.032715 0.354707 0.867574 -0.348565 
-154.208496 -145.916931 3935.093506 0.367505 0.865712 -0.339827 
-40.280014 -168.897751 3995.779541 0.361016 0.864903 -0.348726 
-40.519424 -167.510696 3998.946777 0.358340 0.865860 -0.349112 
-36.392559 -169.644562 3997.948486 0.354707 0.867574 -0.348565 
-38.632050 -168.302933 3998.998535 0.358340 0.865860 -0.349112 
-24.003447 -179.446426 3986.030029 0.348565 0.867574 -0.354707 
-31.355257 -175.916290 3987.430664 0.354327 0.866643 -0.351259 
-35.254253 -173.802628 3988.694580 0.357768 0.867550 -0.345484 
-31.371590 -175.210358 3989.141357 0.351640 0.867582 -0.351640 
-29.168245 -175.439285 3990.756836 0.343479 0.871672 -0.349585 
-31.301907 -174.200897 3991.738770 0.346901 0.872600 -0.343844 
-28.418455 -175.300278 3991.814697 0.346535 0.871681 -0.346535 
-34.223721 -174.013763 3989.199219 0.354707 0.867574 -0.348565 
-28.261211 -177.759628 3985.935547 0.350705 0.868339 -0.350705 
-24.575781 -177.842209 3989.376221 0.357954 0.864927 -0.351809 
-26.193586 -176.187515 3991.806396 0.351080 0.869269 -0.348014 
-24.844669 -176.628937 3992.118164 0.354707 0.867574 -0.348565 
-22.247538 -177.575790 3992.422363 0.350517 0.870936 -0.344395 
-28.609068 -174.757996 3992.971191 0.346535 0.871681 -0.346535 
-29.848944 -174.098480 3993.489258 0.343290 0.874245 -0.343290 
-28.549629 -173.054398 3997.856201 0.359281 0.869918 -0.337877 
-25.844048 -175.412079 3994.133789 0.352628 0.871648 -0.340416 
-21.143436 -176.858582 3995.325439 0.346535 0.871681 -0.346535 
-23.562092 -174.082230 4000.073242 0.300682 0.890077 -0.342568 
-44.377819 -45.726559 3633.108398 -0.737090 0.300296 0.605409 
-43.709042 -42.250366 3632.238525 -0.271284 0.297397 0.915402 
-65.115364 -36.756351 3619.590332 -0.286367 0.424191 0.859102 
-61.274704 -41.101971 3623.536133 -0.345023 0.475400 0.809293 
-57.885597 -41.398540 3625.206299 -0.380142 0.463549 0.800384 
-55.695618 -39.808781 3625.464111 -0.349950 0.340781 0.872584 
-48.490253 -59.508503 3641.363281 -0.307236 0.542837 0.781622 
-50.377789 -70.777023 3648.449951 -0.296826 0.538096 0.788890 
-49.784901 -69.917404 3648.064209 -0.300467 0.538933 0.786938 
-50.312496 -69.227081 3647.387939 -0.300467 0.538933 0.786938 
-49.123280 -67.776421 3646.873291 -0.300467 0.538933 0.786938 
-47.716091 -68.806160 3648.118652 -0.314306 0.540861 0.780180 
-50.864376 -63.528469 3643.235352 -0.297288 0.545292 0.783758 
-48.214317 -62.446171 3643.499512 -0.303591 0.542014 0.783615 
-46.576019 -59.754593 3642.282227 -0.300701 0.542535 0.784369 
-42.949272 -58.905537 3643.079102 -0.297059 0.541696 0.786334 
-43.224487 -59.361694 3643.289795 -0.297059 0.541696 0.786334 
-41.966927 -58.677319 3643.295654 -0.294301 0.555196 0.777910 
-39.146118 -58.222351 3644.032715 -0.293574 0.553824 0.779162 
-36.778458 -62.765511 3648.175781 -0.283830 0.559732 0.778550 
-36.778862 -60.416222 3646.483887 -0.286742 0.559226 0.777847 
-49.295868 -78.671631 3654.330322 -0.313814 0.533643 0.785332 
-48.655632 -77.589180 3653.852783 -0.313814 0.533643 0.785332 
-46.199451 -75.980827 3653.746826 -0.307280 0.533362 0.788102 
-42.671600 -75.428581 3654.727051 -0.307000 0.539238 0.784202 
-38.356499 -77.640030 3657.981934 -0.311184 0.537791 0.783547 
-39.260750 -75.780853 3656.313232 -0.304046 0.549194 0.778423 
-36.914700 -74.732391 3656.497314 -0.307692 0.550020 0.776405 
-50.135426 -87.891426 3660.279785 -0.278692 0.543214 0.791990 
-49.104156 -88.632858 3661.142334 -0.278692 0.543214 0.791990 
-48.173000 -89.388191 3661.998291 -0.297510 0.548882 0.781163 
-41.664066 -86.085701 3662.022217 -0.411030 0.515834 0.751644 
-40.889103 -84.955139 3661.668701 -0.343283 0.486983 0.803122 
-37.819660 -82.701767 3661.615723 -0.330240 0.512112 0.792895 
-46.099880 -80.367210 3656.758545 -0.314347 0.531359 0.786666 
-39.996548 -80.435799 3659.189453 -0.324291 0.528771 0.784370 
-37.360058 -81.373154 3660.912598 -0.317474 0.534441 0.783315 
-64.457176 -56.701191 3633.273438 -0.303822 0.545607 0.781029 
-55.746838 -54.501820 3635.025391 -0.311118 0.547249 0.776997 
-55.090565 -52.092850 3633.606445 -0.304578 0.546965 0.779783 
-53.293678 -53.862259 3635.553467 -0.304578 0.546965 0.779783 
-54.494305 -57.403465 3637.564453 -0.301153 0.549724 0.779173 
-45.657295 -102.105988 3671.790771 -0.307280 0.533362 0.788102 
-50.571857 -101.654755 3669.532959 -0.313560 0.530027 0.787878 
-47.072308 -100.697144 3670.279541 -0.307767 0.540586 0.782973 
-45.875244 -100.783493 3670.808838 -0.307000 0.539238 0.784202 
-46.580490 -98.930702 3669.234375 -0.304349 0.543366 0.782384 
-44.351048 -101.424400 3671.840088 -0.310159 0.532838 0.787328 
-41.876278 -100.554611 3672.222900 -0.309905 0.529223 0.789862 
-40.448502 -98.972130 3671.706787 -0.313814 0.533643 0.785332 
-39.291702 -99.571609 3672.573486 -0.313560 0.530027 0.787878 
-36.938396 -98.699722 3672.952393 -0.320082 0.520730 0.791446 
-52.063755 -96.373085 3665.361084 -0.306758 0.535634 0.786763 
-47.999409 -97.370193 3667.613770 -0.307767 0.540586 0.782973 
-45.706383 -96.946770 3668.197021 -0.307767 0.540586 0.782973 
-44.237553 -97.123993 3668.906982 -0.314306 0.540861 0.780180 
-43.893867 -95.381943 3667.859863 -0.313560 0.530027 0.787878 
-40.445869 -95.242332 3669.176758 -0.320884 0.531613 0.783850 
-41.236668 -93.321640 3667.556641 -0.325303 0.543239 0.773996 
-38.611992 -90.978325 3667.013184 -0.322326 0.553246 0.768130 
-43.073784 -103.226875 3673.523193 -0.306510 0.532026 0.789304 
-37.729931 -100.077019 3673.534424 -0.313560 0.530027 0.787878 
-48.763573 -121.331238 3683.457275 -0.303628 0.532542 0.790069 
-50.123512 -119.016472 3681.409668 -0.296093 0.527267 0.796442 
-47.635983 -118.720993 3682.148682 -0.296093 0.527267 0.796442 
-47.213596 -118.035622 3681.840088 -0.295598 0.529547 0.795111 
-42.627045 -118.721832 3684.107666 -0.309905 0.529223 0.789862 
-40.783756 -117.899864 3684.292969 -0.306257 0.528412 0.791825 
-43.374378 -114.932281 3681.288574 -0.310685 0.530554 0.788662 
-39.643387 -115.050827 3682.799561 -0.303114 0.534814 0.788731 
-36.677433 -118.437645 3686.219727 -0.303377 0.528924 0.792592 
-38.354671 -120.333427 3686.836426 -0.307028 0.529743 0.790637 
-38.006680 -120.146965 3686.852051 -0.303377 0.528924 0.792592 
-37.835758 -121.730209 3688.002197 -0.306510 0.532026 0.789304 
-37.187462 -136.413971 3698.093506 -0.309110 0.518354 0.797346 
-35.744682 -131.118759 3695.104980 -0.317219 0.530824 0.785874 
-33.388454 -131.976883 3696.631348 -0.317219 0.530824 0.785874 
-33.850811 -126.842613 3693.002686 -0.313560 0.530027 0.787878 
-31.518366 -126.793365 3693.875488 -0.311914 0.508246 0.802743 
-26.433502 -126.858047 3695.944092 -0.313824 0.524101 0.791728 
-28.027567 -125.104889 3694.161621 -0.316419 0.519945 0.793433 
-25.084888 -124.452690 3694.890869 -0.310427 0.526929 0.791190 
-36.271812 -107.624496 3679.168701 -0.370268 0.229771 0.900059 
-34.734772 -107.690552 3679.818115 -0.310159 0.532838 0.787328 
-35.776363 -139.768906 3700.829102 -0.306507 0.522492 0.795648 
-34.087124 -138.292465 3700.513916 -0.309893 0.519667 0.796186 
-34.386158 -142.326111 3703.041260 -0.310163 0.523300 0.793698 
-32.652981 -142.592072 3703.941162 -0.313033 0.522782 0.792912 
-33.528542 -139.309921 3701.412598 -0.313033 0.522782 0.792912 
-31.013996 -137.954865 3701.516602 -0.312762 0.519153 0.795399 
-29.613115 -139.810455 3703.263916 -0.310163 0.523300 0.793698 
-25.403862 -138.520416 3704.079590 -0.313033 0.522782 0.792912 
-23.497673 -138.630920 3704.913330 -0.316419 0.519945 0.793433 
-32.406967 -151.783707 3710.089844 -0.306257 0.528412 0.791825 
-28.699051 -146.024719 3707.786133 -0.310685 0.530554 0.788662 
-34.101120 -150.501770 3708.591797 -0.378448 0.448708 0.809591 
-30.314152 -153.505692 3712.053467 -0.310163 0.523300 0.793698 
-28.490353 -151.728516 3711.569336 -0.309646 0.525604 0.792376 
-26.545074 -151.238846 3712.023682 -0.309893 0.519667 0.796186 
-25.142778 -148.112762 3710.540283 -0.306239 0.518860 0.798124 
-28.298527 -145.990067 3707.927246 -0.306770 0.526119 0.793152 
-27.227091 -143.613373 3706.770752 -0.310685 0.530554 0.788662 
-27.726852 -142.184174 3705.582275 -0.309905 0.529223 0.789862 
-24.908140 -144.421249 3708.203613 -0.313824 0.524101 0.791728 
-21.598415 -142.237503 3708.090088 -0.312485 0.515521 0.797867 
-25.149656 -140.190140 3705.272949 -0.313299 0.526406 0.790405 
-50.853382 -162.993820 3710.177490 -0.310163 0.523300 0.793698 
-48.866096 -163.792786 3711.483154 -0.313033 0.522782 0.792912 
-43.559700 -162.873978 3712.953613 -0.316141 0.516311 0.795913 
-50.827831 -158.247406 3707.076660 -0.309381 0.521981 0.794871 
-49.963741 -158.925629 3707.874268 -0.309381 0.521981 0.794871 
-39.468964 -156.678177 3710.507812 -0.310427 0.526929 0.791190 
-36.482960 -157.379242 3712.167236 -0.317219 0.521259 0.792251 
-51.037941 -178.304245 3720.391602 -0.303628 0.532542 0.790069 
-48.740005 -170.435059 3715.922607 -0.306510 0.532026 0.789304 
-50.993011 -175.653412 3718.622559 -0.303355 0.538416 0.786183 
-50.310535 -173.964401 3717.694092 -0.303355 0.538416 0.786183 
-49.805878 -174.192932 3718.057617 -0.303355 0.538416 0.786183 
-48.860744 -174.760422 3718.827148 -0.299717 0.537587 0.788144 
-49.737167 -173.569550 3717.658691 -0.303355 0.538416 0.786183 
-44.645004 -173.718704 3719.708008 -0.295843 0.533151 0.792607 
-41.997326 -170.120087 3718.364746 -0.306770 0.526119 0.793152 
-39.700813 -172.116074 3720.574951 -0.312762 0.519153 0.795399 
-38.327522 -171.315628 3720.577393 -0.309381 0.521981 0.794871 
-46.769203 -181.972961 3724.440186 -0.306507 0.522492 0.795648 
-49.496185 -179.196884 3721.583252 -0.296084 0.536751 0.790084 
-46.133392 -178.039581 3722.057617 -0.296587 0.534491 0.791427 
-50.211830 -184.113144 3724.520996 -0.309905 0.529223 0.789862 
-46.736790 -183.496826 3725.450928 -0.306770 0.526119 0.793152 
-44.865505 -182.334030 3725.416260 -0.310408 0.536448 0.784774 
-42.619873 -179.188431 3724.142822 -0.306510 0.532026 0.789304 
-40.910782 -182.058945 3726.787109 -0.299952 0.541183 0.785589 
-37.053818 -179.977432 3726.788086 -0.288105 0.524257 0.801342 
-47.085110 -177.132965 3721.090332 -0.295843 0.533151 0.792607 
-44.790314 -176.713028 3721.658447 -0.302867 0.531206 0.791260 
-40.621269 -176.269638 3722.981445 -0.306770 0.526119 0.793152 
-37.016850 -176.688904 3724.656250 -0.306507 0.522492 0.795648 
-54.197731 -169.335251 3713.100830 -0.302614 0.527595 0.793769 
-37.354122 -232.732376 3768.886230 -0.540817 0.833699 -0.111643 
-39.430519 -233.585709 3772.816895 -0.555249 0.826384 -0.093743 
-37.460827 -232.092743 3774.875488 -0.535132 0.839282 -0.096123 
-51.005749 -240.559021 3778.179199 -0.559109 0.825078 -0.081507 
-51.312855 -240.659363 3779.303467 -0.559109 0.825078 -0.081507 
-44.875328 -236.764450 3777.907959 -0.523554 0.850251 -0.054450 
-51.667145 -240.711380 3781.054688 -0.554888 0.827314 -0.087463 
-44.839565 -236.477158 3781.505859 -0.525181 0.846837 -0.083972 
-45.356148 -236.402115 3784.190186 -0.534093 0.838048 -0.111450 
-43.641197 -236.077911 3777.070312 -0.523554 0.850251 -0.054450 
-49.009144 -238.321869 3787.520020 -0.538467 0.837137 -0.096206 
-44.645546 -235.334320 3789.085205 -0.547435 0.830541 -0.102554 
-33.959568 -227.742813 3759.750000 -0.292952 0.533648 0.793346 
-31.270098 -227.004761 3760.169922 -0.362713 0.690960 0.625311 
-35.932095 -221.857040 3755.170898 -0.297059 0.541696 0.786334 
-33.543030 -221.835327 3756.035156 -0.291723 0.525101 0.799479 
-30.077368 -221.488190 3757.062500 -0.288834 0.525583 0.800211 
-30.077976 -222.220734 3757.544922 -0.288834 0.525583 0.800211 
-27.015717 -224.839203 3760.288086 -0.322758 0.762737 0.560411 
-50.732681 -195.623764 3731.641602 -0.323714 0.511882 0.795730 
-52.237461 -200.482742 3734.507568 -0.285669 0.598468 0.748484 
-46.330910 -197.458557 3734.917236 -0.310159 0.532838 0.787328 
-45.978725 -196.975159 3734.731445 -0.310159 0.532838 0.787328 
-44.881752 -197.464676 3735.493408 -0.310159 0.532838 0.787328 
-44.298485 -194.219528 3733.520020 -0.306770 0.526119 0.793152 
-40.330959 -196.555450 3736.593750 -0.306257 0.528412 0.791825 
-50.384964 -193.092773 3730.124756 -0.323714 0.511882 0.795730 
-50.233490 -192.178925 3729.627930 -0.340688 0.507033 0.791739 
-46.159428 -191.371323 3730.940674 -0.340995 0.510692 0.789251 
-44.306252 -190.075256 3730.856201 -0.315857 0.512673 0.798373 
-43.570435 -189.673187 3730.864014 -0.315857 0.512673 0.798373 
-37.959824 -186.055664 3730.532227 -0.306770 0.526119 0.793152 
-42.208366 -192.419205 3733.178711 -0.305464 0.517548 0.799272 
-38.364006 -192.831543 3734.881104 -0.295838 0.523648 0.798920 
-36.491383 -189.098724 3733.119385 -0.303377 0.528924 0.792592 
-40.864033 -199.189880 3738.160400 -0.303628 0.532542 0.790069 
-41.729515 -201.393875 3739.312744 -0.306510 0.532026 0.789304 
-39.437538 -200.180008 3739.381104 -0.303628 0.532542 0.790069 
-38.447941 -198.849594 3738.860596 -0.303628 0.532542 0.790069 
-46.665241 -215.730103 3746.964844 -0.296342 0.530881 0.793944 
-46.247662 -215.987396 3747.293457 -0.296342 0.530881 0.793944 
-48.196682 -212.676010 3744.348877 -0.303377 0.528924 0.792592 
-42.693764 -211.545639 3745.672363 -0.320355 0.524362 0.788934 
-37.929199 -211.307312 3747.156982 -0.233322 0.536177 0.811218 
-37.636169 -213.192795 3748.497070 -0.251125 0.553724 0.793931 
-36.864719 -214.951889 3750.037598 -0.252173 0.574829 0.778447 
-37.733822 -209.032791 3745.821289 -0.252240 0.506028 0.824810 
-83.513504 -231.766022 3794.975342 0.358516 0.863209 -0.355439 
-80.149750 -233.151749 3795.091309 0.362153 0.861462 -0.355989 
-83.492348 -230.855133 3797.294678 0.358340 0.865860 -0.349112 
-77.536430 -231.320969 3802.779053 0.393707 0.851217 -0.347023 
-76.536980 -231.636505 3803.148193 0.386555 0.852284 -0.352402 
-80.351936 -229.307739 3804.513916 0.389615 0.852186 -0.349256 
-81.470238 -229.024384 3804.032959 0.376355 0.847971 -0.373232 
-76.850525 -229.069778 3808.632812 0.385241 0.846906 -0.366525 
-73.063805 -232.723404 3804.277344 0.365343 0.853503 -0.371561 
-76.151077 -231.042236 3805.033203 0.380035 0.846086 -0.373779 
-73.158516 -231.480087 3806.906250 0.357000 0.849628 -0.388179 
-71.938614 -232.622162 3805.572266 0.356567 0.848598 -0.390822 
-72.005989 -231.758621 3807.288330 0.345609 0.853950 -0.389004 
-95.680077 -220.044693 3811.617920 0.354327 0.866643 -0.351259 
-92.346886 -220.460342 3813.955811 0.354327 0.866643 -0.351259 
-95.395073 -218.118454 3816.647949 0.348184 0.866627 -0.357388 
-90.455742 -222.778427 3810.126709 0.358907 0.864150 -0.352746 
-88.268463 -223.142868 3811.488770 0.361587 0.863192 -0.352355 
-86.749573 -221.810822 3816.316650 0.365621 0.862372 -0.350194 
-90.039207 -219.019333 3819.843262 0.360442 0.866594 -0.345104 
-87.672600 -221.045258 3817.241455 0.472837 0.849891 -0.232618 
-86.224396 -219.396591 3822.861328 0.367120 0.864805 -0.342543 
-87.584801 -218.841568 3822.852295 0.364072 0.864862 -0.345638 
-86.871330 -218.467819 3824.583252 0.367120 0.864805 -0.342543 
-63.845493 -240.371719 3794.255371 0.372335 0.860541 -0.347615 
-68.227348 -237.669846 3796.284180 0.358340 0.865860 -0.349112 
-62.560612 -238.897995 3799.137451 0.366189 0.913336 -0.178108 
-60.846405 -239.513382 3799.515625 0.366189 0.913336 -0.178108 
-67.620926 -236.750381 3799.150146 0.361587 0.863192 -0.352355 
-52.630280 -239.940445 3795.805908 -0.496162 0.866555 -0.053901 
-58.393223 -240.490570 3799.563965 0.289864 0.872629 0.393062 
-55.196957 -241.096970 3798.685547 -0.069451 0.995463 0.065041 
-53.745811 -240.589325 3797.636230 -0.496162 0.866555 -0.053901 
-53.167355 -240.003174 3798.903320 -0.526188 0.845609 -0.089837 
-61.927372 -236.012207 3806.802979 0.371146 0.863954 -0.340345 
-63.817818 -234.561539 3808.408447 0.360822 0.867509 -0.342397 
-54.876850 -239.842087 3804.374756 -0.318817 0.925279 -0.205460 
-53.327049 -239.212433 3804.792480 -0.440378 0.893260 -0.090298 
-57.065422 -237.560501 3808.280029 0.255865 0.907954 -0.331893 
11.959811 -196.969208 3799.558105 -0.523641 0.840466 0.139344 
14.646340 -195.221161 3799.174561 -0.550412 0.830621 -0.084349 
14.059261 -195.605087 3799.298340 -0.550412 0.830621 -0.084349 
16.812225 -193.860931 3798.434326 -0.549447 0.830626 -0.090379 
19.338270 -192.083267 3799.363037 -0.544348 0.831764 -0.108870 
21.466528 -191.346298 3794.093262 -0.555428 0.825166 -0.102964 
25.364021 -188.846405 3792.927490 -0.547435 0.830541 -0.102554 
19.827404 -191.834106 3798.817139 -0.544348 0.831764 -0.108870 
13.169181 -195.548050 3804.563232 -0.550880 0.827046 -0.111920 
12.446367 -195.975540 3805.038330 -0.551924 0.827162 -0.105749 
18.449228 -191.816437 3806.624756 -0.546437 0.831911 -0.096600 
15.859547 -193.267166 3808.800537 -0.546283 0.831675 -0.099455 
20.490290 -190.806732 3803.900391 -0.557571 0.822526 -0.112096 
24.591816 -188.273239 3803.911377 -0.521810 0.844488 -0.120641 
20.297436 -190.726486 3805.446045 -0.543102 0.834101 -0.096519 
23.778297 -188.085373 3808.801025 -0.547595 0.830783 -0.099694 
4.133546 -200.877472 3810.780273 -0.562090 0.820622 -0.103122 
4.621019 -200.743500 3809.190430 -0.562090 0.820622 -0.103122 
6.293048 -199.407547 3810.801514 -0.558761 0.822902 -0.103044 
5.902002 -199.514572 3811.799805 -0.555559 0.823861 -0.112278 
8.860150 -197.663849 3810.837891 -0.556422 0.825238 -0.096832 
10.463571 -196.636963 3810.294434 -0.555249 0.826384 -0.093743 
11.595336 -195.254669 3815.996826 -0.544255 0.832985 -0.099612 
2.148173 -200.764206 3822.557861 -0.553097 0.827479 -0.096756 
8.905317 -196.707993 3818.222168 -0.537462 0.838440 -0.090294 
11.681547 -194.995682 3817.624023 -0.543205 0.832914 -0.105744 
7.299702 -197.426910 3821.374756 -0.511727 0.856617 -0.065894 
6.387083 -197.806061 3823.553955 -0.556207 0.826406 -0.087671 
11.646216 -194.476715 3821.678467 -0.545490 0.830599 -0.112007 
-16.452076 -210.593597 3844.314941 -0.559368 0.823954 -0.090592 
-19.700993 -212.601486 3846.127930 -0.558559 0.827233 -0.060805 
-16.268972 -210.468765 3844.365479 -0.559368 0.823954 -0.090592 
-13.976295 -208.638031 3846.813721 -0.551924 0.827162 -0.105749 
-10.412910 -206.322906 3846.238770 -0.554405 0.825060 -0.109135 
-6.790351 -203.676468 3848.068604 -0.545277 0.833023 -0.093517 
-18.203884 -211.465378 3849.453125 -0.553146 0.830427 -0.066491 
-18.559362 -211.316452 3853.422363 -0.558566 0.824137 -0.093816 
-20.163980 -212.217194 3854.237305 -0.548853 0.824019 -0.140542 
-17.938988 -210.739319 3854.322510 -0.564436 0.811657 -0.150417 
-17.073874 -210.288452 3853.009766 -0.590272 0.802016 -0.091369 
-13.938967 -208.034592 3851.321777 -0.583356 0.808056 -0.082102 
-13.374054 -207.459305 3852.842041 -0.545129 0.832795 -0.096368 
-13.085210 -206.921768 3855.930664 -0.541947 0.835202 -0.093439 
-11.869572 -206.766113 3850.262939 -0.548751 0.829641 -0.102800 
-6.434625 -203.128448 3851.006348 -0.549613 0.829469 -0.099536 
-5.844013 -202.711594 3851.189209 -0.549613 0.829469 -0.099536 
-10.777213 -205.714722 3853.347412 -0.548605 0.830827 -0.093594 
-10.612623 -205.392639 3855.200928 -0.548455 0.830599 -0.096447 
-9.077337 -204.229584 3856.420654 -0.551778 0.828387 -0.096525 
-6.661046 -202.938705 3853.715088 -0.550770 0.828323 -0.102637 
-8.268498 -204.023422 3853.485596 -0.549613 0.829469 -0.099536 
-1.507659 -202.644806 3827.251221 -0.550931 0.828565 -0.099775 
-3.033706 -203.304291 3830.162842 -0.547435 0.830541 -0.102554 
-2.727147 -202.602921 3834.179932 -0.551778 0.828387 -0.096525 
-36.219215 -219.165894 3874.815918 0.111823 0.936352 -0.332776 
-34.146141 -218.901398 3874.741943 0.051016 0.932669 -0.357109 
-36.090145 -218.021179 3878.003418 0.055145 0.907872 -0.415604 
-48.675064 -214.281738 3874.144287 0.361978 0.864126 -0.349655 
-46.986366 -214.299683 3875.895752 0.374992 0.859548 -0.347214 
-48.647972 -213.468628 3876.211670 0.374992 0.859548 -0.347214 
-48.058090 -213.862595 3875.837402 0.374992 0.859548 -0.347214 
-45.367836 -214.118317 3878.195068 0.374396 0.861266 -0.343582 
-49.200741 -212.771133 3877.387207 0.367505 0.865712 -0.339827 
-51.231735 -211.078674 3879.512207 0.361402 0.865827 -0.346023 
-47.713562 -212.558029 3879.478516 0.368097 0.864027 -0.343455 
-42.588985 -217.052917 3873.641602 0.356817 0.868306 -0.344566 
-41.243996 -217.793518 3873.167480 0.356817 0.868306 -0.344566 
-38.977016 -216.547745 3878.827881 0.352628 0.871648 -0.340416 
-39.169949 -215.959167 3880.144287 0.350147 0.870015 -0.347089 
-45.406761 -212.642471 3881.783203 0.369269 0.860598 -0.350729 
-45.418522 -211.515823 3884.524414 0.354327 0.866643 -0.351259 
-45.330677 -211.307129 3885.129395 0.354327 0.866643 -0.351259 
-40.573540 -214.584778 3882.091553 0.359471 0.862421 -0.356385 
-36.826485 -216.396866 3881.334229 0.344942 0.869253 -0.354140 
-39.111858 -214.234940 3884.345215 0.345104 0.866594 -0.360442 
-43.437859 -212.633545 3883.790283 0.366197 0.860639 -0.353836 
-51.550552 -209.068024 3884.247803 0.360822 0.867509 -0.342397 
-50.262878 -208.565262 3886.900391 0.364072 0.864862 -0.345638 
-46.615524 -209.797058 3887.618652 0.360822 0.867509 -0.342397 
-76.514915 -194.279755 3895.620117 0.302146 0.885392 -0.353255 
-74.836182 -196.690842 3891.115234 0.367120 0.864805 -0.342543 
-72.830124 -197.336823 3891.594238 0.367120 0.864805 -0.342543 
-74.112167 -196.380859 3892.515625 0.352628 0.871648 -0.340416 
-74.887268 -196.087357 3892.479736 0.352628 0.871648 -0.340416 
-74.724434 -195.203003 3894.972412 0.345977 0.873326 -0.342929 
-70.808929 -196.427078 3895.813232 0.348137 0.858739 -0.375988 
-83.995544 -193.717072 3889.827148 0.356203 0.885248 -0.299091 
-82.645180 -193.649078 3891.435547 0.433688 0.808163 -0.398481 
-84.274063 -190.559723 3896.739502 0.462534 0.780627 -0.420338 
-79.345947 -193.618805 3894.973877 0.310393 0.898506 -0.310393 
-69.461670 -194.967178 3900.944824 0.355271 0.865876 -0.352195 
-81.863174 -190.043777 3900.337891 0.329447 0.879031 -0.344629 
-73.023293 -193.035492 3902.102051 0.355271 0.865876 -0.352195 
-52.715637 -206.441620 3889.621582 0.367120 0.864805 -0.342543 
-57.410366 -203.906525 3891.031738 0.361978 0.864126 -0.349655 
-58.396900 -202.373154 3893.801270 0.355271 0.865876 -0.352195 
-56.736916 -203.295090 3893.247070 0.370756 0.863045 -0.343064 
-53.150005 -204.199783 3894.881836 0.368097 0.864027 -0.343455 
-54.491772 -202.177658 3898.437256 0.366197 0.860639 -0.353836 
-53.032963 -203.395996 3896.952637 0.358516 0.863209 -0.355439 
-53.124348 -202.203659 3899.761963 0.362153 0.861462 -0.355989 
-96.351089 -182.593155 3904.108887 0.360822 0.867509 -0.342397 
-97.925224 -182.235825 3903.366699 0.363869 0.867451 -0.339304 
-28.409834 -216.504913 3862.059082 -0.566211 0.818182 -0.099920 
-28.916622 -216.672821 3863.538330 -0.566211 0.818182 -0.099920 
-26.208258 -215.498840 3857.856201 -0.553077 0.825986 -0.108873 
-23.482933 -213.439941 3859.807617 -0.547435 0.830541 -0.102554 
-26.336967 -215.120102 3861.670410 -0.558412 0.823911 -0.096676 
-28.845757 -215.612289 3872.081787 -0.566411 0.816855 -0.109205 
-25.436529 -213.845123 3867.339355 -0.556590 0.823986 -0.106086 
-22.838078 -212.339203 3865.430664 -0.554263 0.826330 -0.099854 
-23.461660 -212.047028 3870.896729 -0.551924 0.827162 -0.105749 
-24.205406 -212.302307 3872.802002 -0.549769 0.829703 -0.096678 
-21.817810 -210.813446 3872.019531 -0.546283 0.831675 -0.099455 
17.163486 -180.324951 3907.379639 -0.548605 0.830827 -0.093594 
12.765110 -183.008102 3909.322266 -0.547439 0.831935 -0.090521 
14.173742 -181.793915 3911.948242 -0.547439 0.831935 -0.090521 
15.979330 -180.605087 3911.961182 -0.547439 0.831935 -0.090521 
23.948877 -175.496063 3908.862793 -0.563024 0.823973 -0.063819 
24.526436 -174.420975 3914.498779 -0.548455 0.830599 -0.096447 
-42.687996 -178.377426 3969.787354 0.353764 0.868331 -0.347639 
-39.347157 -179.201141 3971.060547 0.347089 0.870015 -0.350147 
-51.208523 -173.785522 3972.558105 0.344942 0.869253 -0.354140 
-48.017307 -174.779938 3973.234375 0.355439 0.863209 -0.358516 
-45.315178 -174.943604 3975.589355 0.362153 0.861462 -0.355989 
-45.667416 -174.375366 3976.580322 0.362153 0.861462 -0.355989 
-50.678032 -173.596344 3973.543945 0.344566 0.868306 -0.356817 
-49.733974 -173.962402 3973.567627 0.344566 0.868306 -0.356817 
-44.234081 -176.185715 3973.677490 0.358516 0.863209 -0.355439 
-41.429775 -177.259140 3973.827148 0.348014 0.869269 -0.351080 
-38.943611 -177.264465 3976.279297 0.347089 0.870015 -0.350147 
-39.923435 -177.274124 3975.276611 0.347089 0.870015 -0.350147 
-51.037216 -172.009918 3977.059082 0.347639 0.868331 -0.353764 
-49.521706 -171.259888 3980.399658 0.355830 0.864159 -0.355830 
-44.483891 -173.849579 3979.096436 0.361016 0.864903 -0.348726 
-48.371548 -171.401443 3981.206787 0.352195 0.865876 -0.355271 
-41.173168 -175.466660 3978.528809 0.360822 0.867509 -0.342397 
-42.428822 -174.627594 3979.319824 0.360442 0.866594 -0.345104 
-38.776577 -174.763214 3982.818115 0.354374 0.858854 -0.369849 
-36.878719 -174.885422 3984.348389 0.349798 0.861397 -0.368289 
-42.747181 -173.195938 3982.590088 0.364650 0.863160 -0.349264 
-38.932137 -174.563889 3983.150146 0.354374 0.858854 -0.369849 
-65.581062 -168.280960 3971.538330 0.355271 0.865876 -0.352195 
-66.249771 -167.616928 3972.460205 0.354885 0.864936 -0.354885 
-61.321037 -169.937302 3971.760254 0.354885 0.864936 -0.354885 
-62.219967 -168.287918 3974.870361 0.362549 0.862405 -0.353293 
-58.210098 -169.247650 3976.642578 0.361402 0.865827 -0.346023 
-63.177189 -165.949356 3979.704834 0.365041 0.864085 -0.346558 
-67.515404 -164.838226 3978.169434 0.303914 0.899882 -0.312809 
-67.821632 -164.294342 3979.468506 0.301396 0.912925 -0.275188 
-65.311241 -165.114609 3979.559570 0.331067 0.881334 -0.337114 
-64.740685 -164.927048 3980.604980 0.331067 0.881334 -0.337114 
-62.626144 -165.023834 3982.581299 0.365041 0.864085 -0.346558 
-62.672092 -164.868973 3982.925049 0.364650 0.863160 -0.349264 
-58.168388 -168.958725 3977.441406 0.366308 0.869024 -0.332589 
-55.887779 -166.860184 3984.843262 0.353198 0.869999 -0.344024 
-0.919684 -187.935074 3941.897949 -0.550759 0.829733 -0.090595 
-2.567914 -188.861511 3943.580566 -0.547110 0.832807 -0.084281 
-4.118237 -189.865219 3943.716797 -0.547110 0.832807 -0.084281 
1.421603 -185.930817 3945.648926 -0.565243 0.818076 -0.106074 
-2.624668 -188.251099 3948.963867 -0.544174 0.831498 -0.111737 
-1.205673 -187.125610 3950.441406 -0.547529 0.829281 -0.111829 
-2.598437 -187.793503 3952.281738 -0.547704 0.829547 -0.108960 
6.708464 -185.459518 3922.013672 -0.541799 0.834974 -0.096288 
9.334595 -183.818527 3921.561035 -0.543205 0.832914 -0.105744 
10.870334 -182.675705 3922.700684 -0.539683 0.834845 -0.108515 
10.055752 -182.422440 3928.636719 -0.614837 0.787274 -0.046643 
10.477922 -181.910233 3931.790527 -0.597829 0.798539 -0.070249 
10.128197 -181.724625 3936.187744 -0.573053 0.812189 -0.109361 
-15.099371 -194.224045 3958.235352 -0.048478 0.931571 -0.360312 
-20.104115 -191.984406 3959.053955 0.366361 0.857934 -0.360178 
-16.855858 -193.283234 3959.259277 0.347877 0.876528 -0.332686 
-17.177292 -192.746307 3960.214111 0.347877 0.876528 -0.332686 
-8.157396 -191.365448 3953.458252 -0.563851 0.820540 -0.093735 
-5.888277 -189.771835 3953.753662 -0.550770 0.828323 -0.102637 
-11.447348 -193.368454 3958.145020 -0.275742 0.958043 -0.078234 
-6.983743 -189.975922 3958.117920 -0.562090 0.820622 -0.103122 
-18.822842 -191.635620 3961.185547 0.366768 0.858887 -0.357483 
-15.849357 -192.421967 3962.363281 0.336633 0.875854 -0.345772 
-14.936222 -191.705612 3964.949219 0.099326 0.944257 -0.313869 
-14.297516 -191.563065 3965.920898 0.155584 0.920892 -0.357424 
-14.368667 -190.644302 3968.091309 0.355271 0.865876 -0.352195 
-11.285797 -192.236526 3964.429443 0.110098 0.970638 -0.213869 
-5.210109 -187.756027 3966.819824 -0.587273 0.805527 -0.078973 
-33.948059 -185.471573 3960.933105 0.354707 0.867574 -0.348565 
-35.516930 -183.557373 3964.066650 0.341863 0.869220 -0.357193 
-31.697712 -186.136978 3961.579346 0.353198 0.869999 -0.344024 
-29.455770 -184.508026 3967.989258 0.344395 0.870936 -0.350517 
-74.886993 -159.202606 3985.066162 0.435081 0.824281 -0.362304 
-68.667412 -160.027954 3988.812744 0.371347 0.861339 -0.346693 
-72.881294 -158.154068 3989.239746 0.344024 0.869999 -0.353198 
-70.641846 -157.919266 3991.939697 0.343064 0.863045 -0.370756 
-69.645493 -158.353088 3991.930420 0.349798 0.861397 -0.368289 
-74.896477 -156.763031 3990.720703 0.338247 0.870871 -0.356613 
-70.525093 -157.069672 3993.920898 0.366525 0.846906 -0.385241 
14.010874 -168.495239 4016.954590 -0.587404 0.805706 -0.076118 
-67.889763 -100.688538 3662.023682 -0.313299 0.526406 0.790405 
-67.470787 -99.573082 3661.435059 -0.307028 0.529743 0.790637 
-63.442982 -94.882332 3659.827393 -0.399101 0.614384 0.680625 
-60.806587 -90.730309 3658.129395 -0.302317 0.514414 0.802485 
-61.936066 -93.624901 3659.581299 -0.301824 0.516736 0.801178 
-59.228352 -90.205231 3658.409424 -0.305964 0.515225 0.800580 
-60.150341 -92.067123 3659.228760 -0.301824 0.516736 0.801178 
-54.910797 -90.806778 3660.432861 -0.313553 0.520466 0.794229 
-53.284782 -91.768127 3661.736816 -0.310650 0.540053 0.782201 
-83.939117 -40.308411 3614.229736 -0.301788 0.560463 0.771236 
-76.824501 -36.330593 3614.680908 -0.297612 0.459663 0.836742 
-77.185532 -34.522839 3613.572021 -0.297612 0.459663 0.836742 
-77.812546 -34.906170 3613.620850 -0.297612 0.459663 0.836742 
59.894222 -158.072784 3750.208252 -0.355047 0.552835 0.753866 
-75.100548 -37.126610 3615.782227 -0.297612 0.459663 0.836742 
-82.645203 -54.052605 3624.391357 -0.308002 0.544191 0.780379 
60.947048 -157.315979 3750.150146 -0.355047 0.552835 0.753866 
-80.576469 -51.051151 3623.110596 -0.304349 0.543366 0.782384 
-80.616280 -52.384682 3624.024658 -0.308002 0.544191 0.780379 
65.679863 -156.491470 3751.396729 -0.291139 0.508312 0.810467 
-78.256340 -50.312435 3623.503906 -0.304349 0.543366 0.782384 
68.543114 -156.568207 3752.468262 -0.290673 0.510641 0.809170 
-83.495552 -47.603649 3619.547119 -0.304046 0.549194 0.778423 
-81.406761 -45.229115 3618.666748 -0.293143 0.546673 0.784357 
-80.191704 -44.664326 3618.725342 -0.293143 0.546673 0.784357 
59.881752 -162.581726 3752.993408 -0.283182 0.505347 0.815127 
-81.890968 -49.501225 3621.518311 -0.307467 0.546431 0.779023 
-74.426468 -42.993801 3619.744385 -0.301153 0.549724 0.779173 
-70.525520 -42.702091 3621.065918 -0.312202 0.511885 0.800315 
-69.545250 -42.115665 3621.026855 -0.337226 0.500246 0.797516 
67.399437 -164.925812 3758.006592 -0.555535 0.828330 -0.072461 
-78.668289 -54.517693 3626.275391 -0.308002 0.544191 0.780379 
-75.992805 -53.728271 3626.798584 -0.310887 0.543654 0.779609 
-69.256805 -52.016808 3628.161377 -0.304046 0.549194 0.778423 
64.099686 -160.031662 3753.040283 -0.304332 0.503015 0.808924 
-73.249725 -57.053982 3630.189941 -0.303591 0.542014 0.783615 
-71.145638 -57.012657 3630.949951 -0.297059 0.541696 0.786334 
-68.678352 -52.716286 3628.872803 -0.311343 0.550838 0.774366 
-71.466637 -49.294212 3625.395752 -0.296990 0.551100 0.779798 
-68.683899 -47.946213 3625.500977 -0.297727 0.552467 0.778549 
-82.301811 -71.312164 3636.356445 -0.280411 0.562406 0.777862 
71.969788 -161.169479 3756.749023 -0.629272 0.681848 0.372963 
-82.619141 -68.398323 3634.119385 -0.276610 0.557961 0.782410 
-78.427483 -67.997093 3635.316406 -0.291821 0.575668 0.763837 
-77.209122 -68.496094 3636.291748 -0.337637 0.554112 0.760895 
71.527290 -156.423431 3753.452637 -0.287593 0.517038 0.806202 
74.820312 -156.560226 3754.693359 -0.212675 0.737376 0.641129 
-78.195473 -73.617737 3639.583984 -0.296772 0.547520 0.782399 
58.898373 -169.342041 3770.148193 -0.554433 0.830951 -0.046086 
-79.355965 -65.176704 3632.907227 -0.322898 0.551015 0.769493 
-72.373390 -65.117661 3635.995850 -0.336097 0.541936 0.770289 
-74.893883 -63.843658 3633.853516 -0.344802 0.552006 0.759211 
-73.260826 -65.199455 3635.604736 -0.340495 0.553506 0.760062 
46.808155 -176.513290 3777.429443 -0.558566 0.824137 -0.093816 
-70.994835 -65.377876 3636.743652 -0.324809 0.536015 0.779222 
-71.363998 -63.346264 3635.184814 -0.342437 0.528929 0.776512 
47.131824 -176.033401 3779.811279 -0.543102 0.834101 -0.096519 
-69.405449 -63.853291 3636.302246 -0.321389 0.538846 0.778688 
-71.108978 -60.391495 3633.292236 -0.306758 0.535634 0.786763 
-68.839249 -65.853958 3637.936279 -0.314601 0.534981 0.784106 
-71.035110 -72.739082 3641.866211 -0.303874 0.536155 0.787527 
45.617081 -176.655258 3782.888184 -0.545277 0.833023 -0.093517 
-77.016632 -88.748451 3650.348633 -0.318015 0.532156 0.784650 
46.733360 -175.917191 3782.924805 -0.545277 0.833023 -0.093517 
45.830261 -176.361801 3784.551270 -0.545277 0.833023 -0.093517 
-75.359108 -86.206375 3649.318115 -0.321162 0.525683 0.787726 
-73.134293 -86.580154 3650.475830 -0.321162 0.525683 0.787726 
49.382782 -174.242767 3782.454102 -0.544255 0.832985 -0.099612 
-72.600822 -84.848969 3649.545410 -0.325106 0.530098 0.783136 
-71.888008 -83.856407 3649.173584 -0.324553 0.532395 0.781806 
54.382420 -171.513626 3777.940674 -0.498514 0.862868 -0.083321 
-67.762215 -79.951996 3648.048828 -0.300930 0.546132 0.781781 
56.261005 -170.528229 3777.373291 -0.517403 0.848887 -0.108093 
-67.304321 -78.360527 3647.125488 -0.299952 0.541183 0.785589 
-66.003761 -79.491745 3648.402344 -0.304578 0.546965 0.779783 
-67.150040 -77.880775 3646.868896 -0.299952 0.541183 0.785589 
-61.348972 -75.230423 3647.323975 -0.306758 0.535634 0.786763 
-58.318733 -74.398880 3647.947998 -0.306770 0.526119 0.793152 
49.803524 -173.352142 3787.631348 -0.567808 0.812629 -0.131259 
51.675053 -172.044846 3787.672363 -0.566211 0.818182 -0.099920 
47.081173 -174.801849 3790.401123 -0.551057 0.827312 -0.109048 
14.412811 -53.409561 3661.906982 -0.358674 0.380411 0.852432 
52.001564 -171.901947 3787.040527 -0.567761 0.815883 -0.109465 
-49.000454 -139.348907 3695.187256 -0.326576 0.551802 0.767374 
-45.343159 -139.592804 3696.918945 -0.326576 0.551802 0.767374 
-65.461700 -130.272278 3682.754150 -0.316692 0.523575 0.790933 
-64.443031 -131.266647 3683.831299 -0.320355 0.524362 0.788934 
34.014835 -182.814514 3795.400635 -0.550613 0.829514 -0.093446 
-64.240669 -135.806610 3686.940674 -0.316692 0.523575 0.790933 
-62.557571 -136.913071 3688.309570 -0.313824 0.524101 0.791728 
-66.217751 -133.166077 3684.379395 -0.320355 0.524362 0.788934 
-61.629246 -133.631607 3686.528809 -0.316692 0.523575 0.790933 
-61.049431 -131.390060 3685.292480 -0.320612 0.518403 0.792758 
-59.321407 -135.739288 3688.830078 -0.316692 0.523575 0.790933 
-64.732979 -127.293091 3681.093994 -0.317219 0.521259 0.792251 
-63.474884 -126.987831 3681.385010 -0.317219 0.521259 0.792251 
-57.420372 -125.879799 3683.113770 -0.310685 0.530554 0.788662 
35.995121 -181.084930 3799.368408 -0.551586 0.829527 -0.087394 
-53.316597 -122.604004 3682.523926 -0.310427 0.526929 0.791190 
40.583298 -178.033096 3799.442139 -0.562090 0.820622 -0.103122 
-54.356274 -128.455231 3686.042236 -0.307280 0.533362 0.788102 
42.762817 -177.181030 3794.311279 -0.554263 0.826330 -0.099854 
42.733044 -177.036575 3795.673828 -0.552940 0.827245 -0.099616 
43.653072 -176.452545 3795.389160 -0.554263 0.826330 -0.099854 
-53.541714 -135.593628 3690.711670 -0.288105 0.524257 0.801342 
-53.212467 -133.489838 3689.533203 -0.293612 0.494587 0.818031 
31.877752 -183.585098 3801.678955 -0.558591 0.822653 -0.105915 
-66.829201 -109.831329 3668.620605 -0.329671 0.554812 0.763872 
-65.105698 -108.414337 3668.322266 -0.329671 0.554812 0.763872 
-63.935516 -107.430847 3668.127686 -0.318517 0.539397 0.779485 
-62.390602 -107.177071 3668.606445 -0.321428 0.529317 0.785180 
29.434488 -184.592056 3808.074951 -0.570326 0.796622 -0.200302 
33.125599 -182.189453 3805.897705 -0.546387 0.830450 -0.108698 
-62.177559 -112.583191 3672.300537 -0.316958 0.527202 0.788413 
34.513325 -181.371582 3805.102783 -0.539851 0.835104 -0.105654 
34.366592 -181.114227 3807.961182 -0.543205 0.832914 -0.105744 
-56.687691 -110.907150 3673.369385 -0.193869 0.578554 0.792269 
-60.134697 -107.750053 3669.907715 -0.317219 0.530824 0.785874 
-56.749401 -106.027336 3670.091797 -0.310685 0.530554 0.788662 
-57.574509 -109.142632 3671.865479 -0.310427 0.526929 0.791190 
-54.815754 -106.165550 3670.946777 -0.310685 0.530554 0.788662 
-67.022354 -121.348236 3676.206055 -0.317490 0.524896 0.789737 
36.323330 -180.101913 3805.984375 -0.546557 0.830708 -0.105832 
39.486732 -177.851349 3807.092285 -0.559752 0.821454 -0.109043 
-60.968605 -117.566002 3676.128906 -0.309381 0.521981 0.794871 
-64.756897 -121.422569 3677.181396 -0.317490 0.524896 0.789737 
-62.983360 -121.040611 3677.623291 -0.313824 0.524101 0.791728 
-63.031151 -121.608376 3677.979980 -0.310408 0.536448 0.784774 
40.955509 -177.224548 3803.822266 -0.562090 0.820622 -0.103122 
43.370075 -175.648438 3803.161621 -0.556416 0.823729 -0.108959 
-59.537811 -117.697578 3676.791504 -0.310163 0.523300 0.793698 
-56.991989 -116.121552 3676.727295 -0.309646 0.525604 0.792376 
43.105736 -175.583374 3805.157471 -0.559927 0.821711 -0.106168 
40.640427 -176.913437 3807.791260 -0.563084 0.819163 -0.109125 
-56.998207 -119.166008 3678.735352 -0.306770 0.526119 0.793152 
-59.148746 -121.395042 3679.371826 -0.313299 0.526406 0.790405 
42.743591 -175.537827 3807.442871 -0.563260 0.819420 -0.106248 
-56.594189 -120.543991 3679.817139 -0.313814 0.533643 0.785332 
-58.071655 -121.492592 3679.871094 -0.313814 0.533643 0.785332 
-53.677170 -115.914558 3677.905762 -0.313560 0.530027 0.787878 
-56.250206 -111.827194 3674.157715 -0.193869 0.578554 0.792269 
-55.467117 -113.626244 3675.662109 -0.310427 0.526929 0.791190 
-64.880295 -153.118896 3698.122559 -0.316371 0.510327 0.799672 
47.973881 -161.656921 3891.444824 -0.557388 0.825279 -0.090738 
50.229485 -160.183014 3890.994141 -0.557240 0.825060 -0.093593 
