ply
format ascii 1.0
comment Created by CloudCompare v2.12.0 (Kyiv)
comment Created 2023-05-18T22:35:46
obj_info Generated by CloudCompare!
element vertex 758
property float x
property float y
property float z
property float nx
property float ny
property float nz
end_header
702.948303 116.657852 2842.044189 -0.552758 0.828419 -0.090451 
699.737854 114.554230 2843.001709 -0.573558 0.815057 -0.081937 
704.394409 117.483414 2841.189697 -0.538467 0.837137 -0.096206 
701.156494 115.738342 2845.242920 -0.572217 0.816018 -0.081745 
702.103455 116.492355 2845.861084 -0.575483 0.813713 -0.081802 
678.775146 103.640388 2866.829590 -0.547435 0.830541 -0.102554 
676.207886 102.177582 2868.749023 -0.546283 0.831675 -0.099455 
678.144287 103.273376 2867.206299 -0.544097 0.832742 -0.102469 
683.459290 106.581772 2865.203369 -0.546437 0.831911 -0.096600 
682.086792 106.036140 2868.424561 -0.553097 0.827479 -0.096756 
683.037354 106.667831 2868.354492 -0.547595 0.830783 -0.099694 
678.368286 103.905296 2871.167480 -0.548585 0.829391 -0.105664 
682.642456 106.925255 2872.636475 -0.547435 0.830541 -0.102554 
667.941223 101.216805 2904.604492 -0.545129 0.832795 -0.096368 
676.097351 102.880859 2874.930176 -0.544097 0.832742 -0.102469 
700.006165 116.941628 2861.070557 -0.546283 0.831675 -0.099455 
680.287109 105.507278 2873.776123 -0.549905 0.828484 -0.105918 
681.260925 106.140579 2873.594482 -0.549905 0.828484 -0.105918 
680.530823 105.869255 2875.312012 -0.549905 0.828484 -0.105918 
677.016235 103.997459 2879.022949 -0.548751 0.829641 -0.102800 
669.467285 102.444206 2906.892090 -0.556264 0.825004 -0.099694 
677.845581 104.754257 2880.671143 -0.548751 0.829641 -0.102800 
668.639893 101.902611 2906.900391 -0.546133 0.832817 -0.090305 
685.683044 108.781471 2871.501709 -0.541897 0.833798 -0.105489 
766.291748 160.296249 2849.665283 -0.668692 0.731522 -0.133140 
764.782898 159.220291 2851.331055 -0.668692 0.731522 -0.133140 
688.959290 110.363541 2866.604248 -0.538548 0.835977 -0.105399 
690.535400 111.570862 2868.045654 -0.546283 0.831675 -0.099455 
750.663269 151.009491 2865.837402 -0.549733 0.828226 -0.108786 
754.174072 153.331345 2865.590088 -0.596841 0.790330 -0.138419 
754.247986 154.380997 2869.550293 -0.691898 0.701062 -0.172593 
690.384277 111.925674 2872.012695 -0.548455 0.830599 -0.096447 
755.772644 154.923660 2865.635010 -0.691898 0.701062 -0.172593 
750.961975 153.420288 2875.243896 -0.658254 0.705838 -0.261715 
693.935059 113.858948 2868.520752 -0.545277 0.833023 -0.093517 
695.608276 114.841881 2867.510254 -0.551924 0.827162 -0.105749 
697.812317 116.321556 2867.561768 -0.549905 0.828484 -0.105918 
716.161072 133.912140 2913.160889 -0.539495 0.837148 -0.090154 
692.826477 113.459373 2871.423096 -0.549613 0.829469 -0.099536 
722.591431 138.283829 2914.783203 -0.574273 0.814866 -0.078766 
720.915894 137.929596 2920.390625 -0.571262 0.812102 -0.118952 
725.393311 140.306168 2914.895996 -0.573680 0.807895 -0.134896 
723.797241 139.300751 2915.932129 -0.579857 0.807711 -0.106624 
696.802185 116.293449 2872.889648 -0.550770 0.828323 -0.102637 
807.659363 179.037201 2775.192627 -0.648855 0.690925 -0.318764 
684.736023 108.730392 2875.971191 -0.542060 0.834049 -0.102630 
703.131714 129.580246 2946.135498 -0.542954 0.835203 -0.087388 
702.432922 129.328217 2948.224854 -0.529734 0.842693 -0.096185 
701.790894 128.924301 2948.272705 -0.531939 0.841639 -0.093197 
689.535950 111.537193 2873.523926 -0.549613 0.829469 -0.099536 
704.295471 130.481934 2947.982422 -0.532841 0.842599 -0.078150 
688.359985 110.775154 2873.712402 -0.546437 0.831911 -0.096600 
703.666809 130.305374 2950.346924 -0.532841 0.842599 -0.078150 
689.871338 111.743347 2873.361328 -0.549613 0.829469 -0.099536 
691.445740 112.953079 2874.704590 -0.552091 0.827412 -0.102883 
689.863892 111.985329 2875.546143 -0.550770 0.828323 -0.102637 
687.491333 110.797394 2878.446045 -0.538710 0.836228 -0.102543 
688.478333 111.258636 2877.018555 -0.550770 0.828323 -0.102637 
691.512817 113.527626 2879.009521 -0.555428 0.825166 -0.102964 
733.182251 143.224884 2897.072510 -0.566943 0.812668 -0.134705 
694.593323 115.050743 2874.767578 -0.549905 0.828484 -0.105918 
734.663574 144.993057 2900.573486 -0.550210 0.813948 -0.186435 
735.298706 145.092682 2898.930908 -0.550210 0.813948 -0.186435 
694.579590 115.171638 2875.776367 -0.549905 0.828484 -0.105918 
734.528381 145.133621 2901.294434 -0.868749 0.386280 -0.309940 
733.191040 145.492371 2905.343750 -0.699346 0.667629 -0.255317 
698.244690 117.372673 2873.865723 -0.548751 0.829641 -0.102800 
699.615906 118.642860 2876.850342 -0.547595 0.830783 -0.099694 
693.544678 114.826118 2878.356201 -0.550770 0.828323 -0.102637 
684.581970 119.310349 2962.107666 -0.546272 0.833029 -0.087461 
684.242249 119.053322 2961.833496 -0.546272 0.833029 -0.087461 
693.293213 114.729492 2878.903076 -0.550770 0.828323 -0.102637 
687.130371 121.045517 2962.951904 -0.551722 0.829732 -0.084550 
684.643738 119.782898 2966.072998 -0.562920 0.823820 -0.066643 
685.659363 120.412689 2965.702637 -0.552531 0.829510 -0.081381 
683.949158 119.313477 2967.246338 -0.570651 0.820571 -0.031934 
691.655518 124.235550 2966.307129 -0.557665 0.821128 -0.121486 
691.470581 124.256042 2967.302246 -0.557665 0.821128 -0.121486 
697.046509 117.052414 2877.776367 -0.548751 0.829641 -0.102800 
698.725952 118.148193 2877.704102 -0.547595 0.830783 -0.099694 
694.822266 125.927216 2963.150879 -0.536172 0.839289 -0.090077 
675.118286 103.198532 2882.747559 -0.547435 0.830541 -0.102554 
674.569885 103.066383 2884.582520 -0.545407 0.831854 -0.102716 
686.187561 121.773224 2974.609375 -0.555097 0.826157 -0.096601 
686.083740 121.786644 2975.324951 -0.555097 0.826157 -0.096601 
675.239197 103.846085 2887.362061 -0.550770 0.828323 -0.102637 
677.428467 104.556854 2881.315186 -0.547435 0.830541 -0.102554 
679.066101 105.790939 2882.643799 -0.542060 0.834049 -0.102630 
677.771973 104.918259 2882.350342 -0.548751 0.829641 -0.102800 
680.658508 118.441170 2977.444336 -0.555643 0.822468 -0.121684 
682.413879 119.713661 2978.307861 -0.553097 0.827479 -0.096756 
676.372681 104.121910 2883.495850 -0.548751 0.829641 -0.102800 
676.967529 104.613647 2884.263672 -0.548751 0.829641 -0.102800 
667.903259 120.489578 2992.290527 0.345010 0.858657 -0.379047 
678.695862 118.280609 2986.893799 -0.494418 0.860546 -0.122523 
675.931335 104.227791 2886.679932 -0.550770 0.828323 -0.102637 
677.871033 105.424782 2885.981201 -0.544255 0.832985 -0.099612 
680.930237 107.267494 2884.987549 -0.540755 0.834926 -0.102383 
683.167786 108.780968 2885.387939 -0.541019 0.832674 -0.118120 
674.773804 103.800743 2889.655518 -0.562090 0.820622 -0.103122 
673.269653 103.067429 2891.893066 -0.565594 0.816969 -0.112534 
675.699097 104.499321 2890.058594 -0.562090 0.820622 -0.103122 
679.828125 107.330658 2891.586182 -0.554785 0.831486 -0.029054 
682.907104 109.394379 2891.271484 -0.567003 0.819642 -0.081821 
668.844116 235.309601 2618.607910 -0.290746 0.567194 0.770557 
678.852661 106.766846 2893.232666 -0.546363 0.836834 -0.034580 
680.614380 107.953018 2894.041016 -0.554785 0.831486 -0.029054 
668.991394 230.566071 2622.079102 -0.309484 0.569259 0.761685 
808.627991 179.511520 2773.699707 -0.662947 0.730004 -0.166118 
671.200623 232.204453 2621.789307 -0.308455 0.551383 0.775133 
671.740479 231.251633 2622.682617 -0.308455 0.551383 0.775133 
677.240784 233.469147 2623.060303 -0.297613 0.561804 0.771883 
679.506897 232.694901 2624.494385 -0.348324 0.502422 0.791355 
677.220276 238.207077 2620.859619 -0.315726 0.398893 0.860931 
682.266785 235.653351 2623.894287 -0.393966 0.521474 0.756872 
809.856262 180.763153 2774.234863 -0.677770 0.708648 -0.196075 
401.850586 176.143921 2849.964111 0.407800 0.794646 -0.449708 
396.340729 180.042068 2848.974365 0.546585 0.450226 -0.706075 
396.733185 180.465225 2849.666992 0.546585 0.450226 -0.706075 
396.249207 181.087967 2849.513428 0.546585 0.450226 -0.706075 
398.885956 180.196609 2851.444092 0.602931 0.485368 -0.633161 
406.101318 174.553909 2850.492676 0.356391 0.775674 -0.520879 
403.089417 177.177704 2852.354004 0.353258 0.772650 -0.527467 
404.873871 177.462479 2853.919678 0.475334 0.592907 -0.650015 
407.407501 176.723709 2855.100830 0.429746 0.769621 -0.472230 
534.145020 99.930428 2802.490234 0.336078 0.856457 -0.391833 
537.272217 99.205925 2803.530518 0.341487 0.868266 -0.359863 
460.478302 138.527588 2818.314941 0.370160 0.864732 -0.339442 
466.602844 136.510239 2820.122314 0.375981 0.867059 -0.326874 
460.715759 140.612732 2823.939941 0.369561 0.866398 -0.335825 
467.856049 135.446701 2818.675293 0.375981 0.867059 -0.326874 
470.750763 135.019775 2820.867920 0.372586 0.866301 -0.332721 
470.644379 134.436661 2819.268311 0.375603 0.866187 -0.329611 
470.592133 136.292953 2824.028076 0.365335 0.869771 -0.331705 
474.849243 134.614487 2824.309082 0.361978 0.864126 -0.349655 
460.570404 141.255219 2825.329346 0.381084 0.859368 -0.340970 
464.527649 142.237015 2832.374512 0.371934 0.859614 -0.350327 
466.131592 141.679611 2832.655762 0.365041 0.864085 -0.346558 
474.799744 135.221008 2825.719238 0.921022 0.368685 -0.125657 
468.728638 138.808212 2828.238525 0.393707 0.851217 -0.347023 
471.501892 137.736511 2828.764648 0.384119 0.859254 -0.337839 
474.770020 136.405151 2828.990234 0.367505 0.865712 -0.339827 
474.758179 137.971619 2832.679443 0.369269 0.860598 -0.350729 
475.357147 137.230789 2831.560791 0.367335 0.857115 -0.361135 
471.173920 138.381790 2829.977295 0.376169 0.856055 -0.354496 
471.423065 138.795105 2831.278076 0.376580 0.856992 -0.351785 
460.288300 142.137451 2827.412109 0.389526 0.860653 -0.327941 
464.942322 141.537796 2831.120850 0.372516 0.857869 -0.353967 
445.919037 149.912231 2831.304443 0.371742 0.862257 -0.343977 
525.536682 102.401726 2798.864014 0.429929 0.833085 -0.348038 
524.068420 103.128845 2799.045166 0.403044 0.848104 -0.343910 
493.218536 118.282310 2803.191650 0.371934 0.859614 -0.350327 
492.967438 119.966980 2807.188721 0.376219 0.864536 -0.333222 
497.547974 118.500389 2808.751953 0.394858 0.856301 -0.332920 
493.859894 121.653152 2812.593018 0.375582 0.857811 -0.350853 
495.876282 119.692200 2809.926270 0.385139 0.858443 -0.338737 
496.106140 120.422592 2811.854248 0.350729 0.860598 -0.369269 
499.416260 120.501350 2815.537354 0.367707 0.863111 -0.346167 
493.267670 122.690514 2814.462646 0.367707 0.863111 -0.346167 
504.120911 118.834518 2816.554443 0.376831 0.862866 -0.336841 
481.917908 128.837067 2817.721191 0.417545 0.842909 -0.339353 
483.678741 128.974991 2820.140869 0.413525 0.834911 -0.363210 
476.804474 131.143188 2817.716309 0.383499 0.860947 -0.334214 
487.642517 127.790962 2821.827881 0.380143 0.843198 -0.380143 
483.945068 130.015625 2822.758057 0.408420 0.834187 -0.370574 
485.111481 128.843475 2821.426025 0.408420 0.834187 -0.370574 
486.924652 128.313843 2822.256348 0.408420 0.834187 -0.370574 
491.554779 126.675522 2822.870605 0.346105 0.852071 -0.392666 
479.132782 133.559235 2826.394287 0.357768 0.867550 -0.345484 
481.362000 133.859161 2829.445068 0.371742 0.862257 -0.343977 
490.234497 128.571579 2825.811279 0.313041 0.855851 -0.411734 
485.705170 131.024551 2827.144531 0.364457 0.865778 -0.342928 
485.440277 132.302582 2830.100342 0.381484 0.860270 -0.338239 
488.600250 131.869003 2832.571533 0.362626 0.878497 -0.311039 
522.480286 105.224472 2802.560059 0.365621 0.862372 -0.350194 
517.978333 109.711884 2808.690674 0.366529 0.866480 -0.338924 
522.774841 106.667175 2806.364746 0.324363 0.875627 -0.357865 
522.510254 107.663475 2808.565674 0.371347 0.861339 -0.346693 
510.380981 110.972778 2803.854980 0.381484 0.860270 -0.338239 
511.733398 110.444664 2804.017822 0.361978 0.864126 -0.349655 
509.749207 111.765892 2805.226074 0.373797 0.862964 -0.339955 
511.017578 112.479538 2808.377441 0.358907 0.864150 -0.352746 
513.395508 111.357246 2807.951172 0.358907 0.864150 -0.352746 
514.131775 111.246574 2808.444824 0.363117 0.860664 -0.356936 
518.199707 109.802315 2809.161133 0.366529 0.866480 -0.338924 
522.599304 108.489983 2810.696533 0.372335 0.860541 -0.347615 
511.199005 113.352951 2810.566895 0.346693 0.861339 -0.371347 
514.659424 113.455772 2814.515869 0.368868 0.859663 -0.353434 
508.389282 115.593735 2813.125488 0.369849 0.858854 -0.354374 
507.937866 116.930534 2815.823730 0.371742 0.862257 -0.343977 
515.186890 113.448708 2815.096436 0.368868 0.859663 -0.353434 
516.995239 111.595886 2812.441406 0.365041 0.864085 -0.346558 
518.435669 112.634636 2816.466797 0.369269 0.860598 -0.350729 
429.728119 158.278519 2834.885498 0.408242 0.869601 -0.277726 
432.760071 156.842484 2834.365234 0.368103 0.872144 -0.322281 
434.337677 157.227371 2837.011475 0.356613 0.870871 -0.338247 
439.317535 154.608078 2835.727051 0.369561 0.866398 -0.335825 
428.770111 159.032639 2835.564941 0.428195 0.857924 -0.283928 
429.619354 160.532059 2840.394775 0.377438 0.861176 -0.340465 
437.518463 157.697708 2841.760254 0.365335 0.869771 -0.331705 
439.811462 157.076202 2842.670654 0.376831 0.862866 -0.336841 
441.232147 157.065826 2844.145752 0.371974 0.867940 -0.329113 
443.196350 156.614120 2845.337646 0.374359 0.869430 -0.322407 
427.888977 161.488373 2840.921143 0.377438 0.861176 -0.340465 
433.458893 159.601868 2842.288574 0.369332 0.868926 -0.329487 
435.032867 159.134872 2842.741211 0.368719 0.870545 -0.325880 
431.875366 160.493073 2842.799072 0.371974 0.867940 -0.329113 
434.119598 159.923141 2843.877197 0.369332 0.868926 -0.329487 
431.804230 161.614639 2845.673096 0.383262 0.863495 -0.327851 
427.836670 163.390625 2845.662354 0.384119 0.859254 -0.337839 
437.309814 159.825836 2847.165527 0.361477 0.873952 -0.324872 
438.677948 159.480331 2847.759521 0.365934 0.868135 -0.335312 
458.408722 145.675903 2834.227295 0.379047 0.858657 -0.345010 
453.762421 147.328659 2833.417236 0.377438 0.861176 -0.340465 
457.609375 147.176895 2837.218506 0.440699 0.842468 -0.309891 
456.503235 148.894165 2840.222656 0.346558 0.864085 -0.365041 
456.696899 148.375229 2839.181152 0.346558 0.864085 -0.365041 
524.674316 136.453796 2883.555908 0.370756 0.863045 -0.343064 
530.482178 134.331131 2884.481201 0.369941 0.867288 -0.333100 
528.247925 138.247757 2892.247559 0.330442 0.899455 -0.285988 
527.425049 138.970001 2893.561035 0.336312 0.885271 -0.321231 
530.106506 137.982788 2893.560059 0.352634 0.886837 -0.298613 
535.890198 134.781570 2891.588379 0.377833 0.862077 -0.337737 
533.664856 136.289261 2892.920898 0.365934 0.868135 -0.335312 
536.730957 135.006546 2893.020752 0.377833 0.862077 -0.337737 
413.470490 167.606308 2840.753662 0.376716 0.870869 -0.315709 
414.215942 166.631287 2838.944092 0.434702 0.855581 -0.281097 
416.563080 167.123932 2843.089355 0.396865 0.865747 -0.304927 
417.610748 166.858475 2843.943115 0.401346 0.868312 -0.291472 
414.414734 168.856232 2845.425049 0.400988 0.867536 -0.294261 
413.874542 169.351166 2846.084717 0.397020 0.871619 -0.287497 
418.819977 167.024094 2846.008789 0.374094 0.871868 -0.316071 
418.057281 167.854950 2847.359375 0.385629 0.864976 -0.321101 
808.112366 179.383698 2775.232422 -0.648855 0.690925 -0.318764 
498.176025 153.724594 2898.349854 0.396280 0.841115 -0.368086 
492.629272 156.275879 2898.343506 0.336687 0.796240 -0.502637 
493.045807 157.848114 2900.511230 0.917162 0.216732 -0.334427 
498.199493 154.389191 2900.025146 0.518926 0.751378 -0.407611 
499.656158 154.179703 2901.265137 0.568957 0.689089 -0.448825 
499.245239 155.020981 2902.462891 0.578736 0.678806 -0.451981 
499.278778 155.728760 2903.407471 0.554593 0.671878 -0.490924 
497.744202 157.416550 2903.541748 0.545140 0.669264 -0.504884 
497.575287 157.996552 2904.257324 0.504214 0.625631 -0.595277 
507.614380 151.707977 2903.705811 0.343977 0.862257 -0.371742 
501.042297 154.962677 2903.856445 0.545140 0.669264 -0.504884 
508.519073 154.765167 2909.555420 0.518931 0.705813 -0.482222 
809.363953 181.264130 2776.206543 -0.648855 0.690925 -0.318764 
511.544708 148.998901 2901.118408 0.369561 0.866398 -0.335825 
515.345154 147.503815 2901.426025 0.369489 0.874306 -0.314750 
522.546387 142.956711 2898.481689 0.434933 0.827164 -0.355855 
519.853821 143.978973 2897.559814 0.434933 0.827164 -0.355855 
519.310120 146.125793 2902.251709 0.376603 0.865418 -0.330488 
520.429016 145.511612 2901.928711 0.379236 0.864413 -0.330105 
521.604797 144.822144 2901.534424 0.393281 0.850295 -0.349756 
520.098389 146.167557 2903.258545 0.379236 0.864413 -0.330105 
522.853577 145.247192 2904.065186 0.374187 0.863863 -0.337230 
518.276550 146.817017 2902.963135 0.375603 0.866187 -0.329611 
520.793396 146.673706 2905.421631 0.376219 0.864536 -0.333222 
518.629272 149.725830 2910.799805 0.483936 0.781743 -0.393299 
520.031433 149.173553 2910.886719 0.464052 0.790667 -0.399376 
519.840759 149.999008 2912.842529 0.279322 0.649624 -0.707084 
795.918945 171.164810 2778.767334 -0.561040 0.814029 -0.150305 
637.086487 90.598267 2704.084961 -0.294830 0.518711 0.802505 
639.079651 90.791206 2704.695557 -0.296093 0.527267 0.796442 
640.800232 96.064377 2701.856934 -0.284985 0.530607 0.798273 
643.199585 94.578148 2703.704102 -0.311321 0.500959 0.807539 
638.374817 60.633080 2725.191162 -0.487412 0.871849 0.048055 
639.587769 64.354424 2722.427734 -0.393713 0.571625 0.719885 
639.514404 61.884178 2724.505615 -0.409433 0.624924 0.664707 
641.180725 67.531624 2720.877197 -0.285703 0.531944 0.797126 
640.238220 61.943169 2725.142334 -0.409433 0.624924 0.664707 
643.295227 63.974937 2725.020996 -0.545592 0.699092 0.462168 
648.920105 68.933823 2723.164062 -0.902932 0.369050 0.220263 
645.470093 65.397835 2725.072510 -0.540811 0.828255 -0.146686 
644.911072 65.496330 2727.665039 -0.531371 0.832034 -0.159262 
648.936890 67.699066 2725.281738 -0.516705 0.737914 0.434164 
643.089844 64.779449 2729.854004 -0.531371 0.832034 -0.159262 
637.848206 62.186802 2736.436035 -0.531702 0.842456 -0.086954 
639.901428 63.237595 2734.321777 -0.529585 0.842457 -0.099028 
643.424622 65.798882 2736.664795 -0.542954 0.835203 -0.087388 
648.110840 68.025177 2729.939453 -0.538396 0.830457 -0.143080 
648.856262 68.679657 2731.418457 -0.546437 0.831911 -0.096600 
649.633911 69.659058 2735.355957 -0.543102 0.834101 -0.096519 
636.703674 83.626167 2708.408447 -0.309747 0.482703 0.819179 
638.593445 85.808434 2707.832275 -0.309747 0.482703 0.819179 
637.559998 78.908096 2711.721680 -0.299229 0.530380 0.793195 
640.670837 82.048019 2710.877441 -0.319519 0.513455 0.796412 
637.930786 82.395111 2709.596924 -0.304332 0.503015 0.808924 
642.553406 84.595291 2710.058350 -0.313718 0.487130 0.815037 
635.919617 76.251236 2712.970459 -0.297809 0.565359 0.769207 
641.134705 74.999992 2715.958496 -0.218204 0.580329 0.784605 
642.601135 73.051826 2717.803955 -0.228238 0.572924 0.787188 
642.978760 72.868675 2718.044434 -0.288581 0.521968 0.802664 
646.698914 77.110680 2716.591064 -0.291723 0.525101 0.799479 
645.218567 71.388824 2719.775146 -0.283984 0.516192 0.808021 
646.583069 75.604065 2717.549072 -0.291973 0.528708 0.797007 
650.841003 74.114517 2719.948486 -0.365975 0.504627 0.781930 
644.453430 79.452278 2714.245117 -0.292206 0.522812 0.800802 
649.645264 81.994049 2714.442871 -0.277539 0.525285 0.804392 
647.941833 80.905281 2714.566895 -0.287852 0.520649 0.803782 
647.502991 83.641113 2712.636475 -0.277539 0.525285 0.804392 
626.194458 54.817528 2739.626709 -0.512336 0.857575 -0.045572 
632.301880 58.645115 2736.908447 -0.543805 0.834976 -0.084211 
624.869690 54.571236 2745.071533 -0.534064 0.839243 -0.102206 
626.810608 56.659809 2752.178223 -0.541657 0.836067 -0.087180 
633.164429 60.142895 2746.498779 -0.554263 0.826330 -0.099854 
633.797241 60.494789 2745.774414 -0.554263 0.826330 -0.099854 
633.273560 60.384838 2747.855225 -0.543973 0.833900 -0.093294 
627.990540 57.126740 2749.346924 -0.538341 0.838213 -0.087106 
631.760437 59.540573 2749.224121 -0.540790 0.836289 -0.090371 
620.687378 52.784786 2753.922363 -0.556845 0.827435 -0.072632 
621.473389 53.541679 2756.674072 -0.558805 0.826122 -0.072517 
621.596313 53.787270 2758.475098 -0.556845 0.827435 -0.072632 
621.178162 53.515511 2758.553955 -0.556845 0.827435 -0.072632 
620.426453 53.837215 2766.883057 -0.548414 0.831928 -0.084482 
621.086792 54.150185 2766.003662 -0.548414 0.831928 -0.084482 
604.505310 53.827026 2761.818359 0.344566 0.868306 -0.356817 
606.026367 53.763103 2763.254639 0.388621 0.864797 -0.317963 
602.939880 58.136772 2770.853760 0.360442 0.866594 -0.345104 
601.466003 58.113865 2769.281006 0.342017 0.866545 -0.363489 
600.545898 59.368507 2771.463135 0.354327 0.866643 -0.351259 
596.924133 61.461582 2772.985352 0.361978 0.864126 -0.349655 
601.285950 60.360073 2774.663818 0.361016 0.864903 -0.348726 
588.445496 63.461826 2768.993164 0.366768 0.858887 -0.357483 
589.926880 63.123486 2769.675049 0.362153 0.861462 -0.355989 
590.854126 63.341095 2771.116455 0.358340 0.865860 -0.349112 
592.189026 62.659534 2770.853760 0.357768 0.867550 -0.345484 
590.140442 65.359596 2775.398682 0.366197 0.860639 -0.353836 
594.045349 63.445751 2774.787354 0.368289 0.861397 -0.349798 
594.473694 63.984531 2776.616455 0.361402 0.865827 -0.346023 
597.703918 62.495468 2776.287354 0.358907 0.864150 -0.352746 
595.578735 63.617073 2776.901367 0.361402 0.865827 -0.346023 
590.670593 66.646324 2779.081055 0.372516 0.857869 -0.353967 
591.272400 66.515793 2779.399170 0.372516 0.857869 -0.353967 
593.604248 67.531868 2784.451904 0.350705 0.868339 -0.350705 
597.324585 63.337906 2777.931885 0.358340 0.865860 -0.349112 
600.601990 62.705616 2779.720215 0.359471 0.862421 -0.356385 
602.653381 62.097057 2780.311768 0.362549 0.862405 -0.353293 
599.381348 65.225822 2784.644775 0.364072 0.864862 -0.345638 
570.059326 78.415070 2786.728760 0.354908 0.857049 -0.373506 
560.106384 84.480392 2791.265869 0.361978 0.864126 -0.349655 
567.063782 80.413391 2788.421875 0.375392 0.860467 -0.344496 
567.900269 79.490005 2787.025635 0.365888 0.851662 -0.375230 
567.338989 81.736061 2792.012451 0.372335 0.860541 -0.347615 
569.896484 79.430794 2789.051270 0.365225 0.861438 -0.352897 
559.752686 85.754532 2794.081299 0.368868 0.859663 -0.353434 
562.911804 84.282356 2793.674072 0.360442 0.866594 -0.345104 
561.496887 85.384880 2794.930664 0.365225 0.861438 -0.352897 
562.687866 85.603897 2796.773682 0.363117 0.860664 -0.356936 
565.134583 83.206528 2793.283936 0.355989 0.861462 -0.362153 
569.282104 82.406509 2795.717285 0.360442 0.866594 -0.345104 
541.418274 89.906502 2784.951416 0.369442 0.857910 -0.357076 
539.830811 92.011909 2788.282959 0.373506 0.857049 -0.354908 
541.487488 91.421417 2788.645752 0.376580 0.856992 -0.351785 
540.722107 92.618378 2790.822021 0.375392 0.860467 -0.344496 
539.929565 92.285469 2789.058838 0.375392 0.860467 -0.344496 
544.283997 91.242554 2791.239746 0.371347 0.861339 -0.346693 
545.272888 91.049377 2791.801758 0.368685 0.862323 -0.347089 
550.186951 86.288948 2785.177002 0.363277 0.869106 -0.335686 
550.461304 87.076088 2787.523438 0.377833 0.862077 -0.337737 
550.558838 87.157402 2787.849121 0.377833 0.862077 -0.337737 
547.770386 88.849434 2789.015137 0.380473 0.861070 -0.337342 
551.168884 88.899559 2792.700928 0.368289 0.861397 -0.349798 
554.087219 86.225098 2789.354736 0.374085 0.855274 -0.358563 
553.044922 87.687897 2791.773193 0.370424 0.857090 -0.358025 
543.343872 93.529480 2795.905762 0.366529 0.866480 -0.338924 
547.385010 90.867294 2793.583252 0.368097 0.864027 -0.343455 
547.261292 92.740509 2798.037354 0.367707 0.863111 -0.346167 
546.101196 93.380524 2798.504395 0.363869 0.867451 -0.339304 
547.226440 93.574631 2800.161377 0.361016 0.864903 -0.348726 
548.802185 90.220459 2793.512207 0.368097 0.864027 -0.343455 
554.094604 88.098183 2793.797363 0.370424 0.857090 -0.358025 
549.529785 90.888435 2795.956787 0.365225 0.861438 -0.352897 
551.693237 90.517136 2797.205811 0.365225 0.861438 -0.352897 
543.243713 94.752632 2798.881592 0.365041 0.864085 -0.346558 
544.136536 94.340523 2798.828369 0.365041 0.864085 -0.346558 
545.183350 94.345200 2799.948242 0.365041 0.864085 -0.346558 
572.004211 70.748817 2769.720947 0.361135 0.857115 -0.367335 
574.925049 71.318306 2774.302002 0.374792 0.862175 -0.340860 
572.020264 74.225685 2778.679443 0.306009 0.894142 -0.326907 
572.444580 73.644485 2777.506592 0.304155 0.897627 -0.318991 
576.554260 74.690323 2784.236816 0.358516 0.863209 -0.355439 
579.143616 73.120880 2783.023438 0.357954 0.864927 -0.351809 
575.226990 75.242508 2784.247803 0.358516 0.863209 -0.355439 
576.483643 74.416420 2783.516602 0.358516 0.863209 -0.355439 
580.812683 71.938347 2781.777100 0.347089 0.862323 -0.368685 
613.480652 53.928535 2771.680908 0.273749 0.875695 -0.397768 
617.543701 52.496727 2770.748779 -0.010139 0.987967 -0.154335 
617.521484 53.755344 2774.976807 -0.366823 0.897170 -0.246022 
663.463745 87.160889 2812.897217 -0.545277 0.833023 -0.093517 
664.528931 87.399132 2808.970459 -0.547439 0.831935 -0.090521 
653.769348 81.034760 2817.311523 -0.564446 0.814983 -0.131164 
659.353516 85.186462 2819.165283 -0.541790 0.836272 -0.084342 
651.924866 80.649231 2822.424561 -0.547595 0.830783 -0.099694 
652.131592 80.991508 2824.083008 -0.547595 0.830783 -0.099694 
654.845825 82.448303 2821.298340 -0.552075 0.824451 -0.124473 
655.119812 83.035385 2824.709717 -0.549613 0.829469 -0.099536 
656.385498 83.519608 2821.602295 -0.549613 0.829469 -0.099536 
652.343750 81.327538 2825.693115 -0.547435 0.830541 -0.102554 
659.605164 86.234314 2826.698486 -0.548585 0.829391 -0.105664 
656.212402 84.298256 2829.173584 -0.545277 0.833023 -0.093517 
656.176575 84.494194 2831.109131 -0.547595 0.830783 -0.099694 
600.499207 97.390129 2865.818115 0.365041 0.864085 -0.346558 
602.299500 96.916588 2866.557617 0.365041 0.864085 -0.346558 
598.216370 98.201294 2865.455078 0.365041 0.864085 -0.346558 
600.530151 98.519394 2868.691406 0.364072 0.864862 -0.345638 
599.807373 99.116653 2869.381592 0.360442 0.866594 -0.345104 
625.946411 81.808632 2853.410889 0.345104 0.866594 -0.360442 
621.393494 83.879524 2853.877441 0.361016 0.864903 -0.348726 
621.480835 83.461777 2852.947510 0.361016 0.864903 -0.348726 
621.381226 84.357735 2855.035400 0.362153 0.861462 -0.355989 
624.519043 83.344757 2855.735107 0.358516 0.863209 -0.355439 
631.496948 78.829247 2851.792236 0.370545 0.865631 -0.336720 
628.234924 80.311172 2852.006104 0.369941 0.867288 -0.333100 
631.801514 80.473312 2856.157471 0.378042 0.859467 -0.344095 
624.043640 84.536499 2858.154541 0.357768 0.867550 -0.345484 
625.030701 85.547585 2861.790283 0.337673 0.879767 -0.334645 
626.927551 85.773949 2864.282959 0.377900 0.850665 -0.365459 
629.928650 82.272743 2858.596680 0.378042 0.859467 -0.344095 
634.732788 79.834557 2857.776367 0.372335 0.860541 -0.347615 
634.325684 80.398514 2858.731934 0.372335 0.860541 -0.347615 
632.783264 83.051003 2863.571533 0.374396 0.861266 -0.343582 
605.230896 89.104111 2850.042969 0.362902 0.868209 -0.338402 
605.745178 89.250259 2850.967285 0.364457 0.865778 -0.342928 
605.505859 90.348038 2853.537354 0.363489 0.866545 -0.342017 
603.994385 91.246933 2854.128906 0.364457 0.865778 -0.342928 
607.356384 90.513718 2855.880615 0.368685 0.862323 -0.347089 
608.797363 90.126961 2856.405518 0.356243 0.869967 -0.340953 
611.922546 86.995735 2851.740234 0.358907 0.864150 -0.352746 
603.902954 93.148392 2858.855469 0.364457 0.865778 -0.342928 
610.115967 90.815697 2859.545166 0.360442 0.866594 -0.345104 
610.338806 91.623192 2861.787842 0.332686 0.876528 -0.347877 
611.422668 92.412239 2864.803955 0.361978 0.864126 -0.349655 
614.670959 88.333115 2858.021240 0.356030 0.872502 -0.334638 
614.630127 89.134521 2860.072998 0.356030 0.872502 -0.334638 
617.768677 86.976578 2857.785156 0.355665 0.871607 -0.337347 
618.988586 87.306198 2859.954590 0.352994 0.872551 -0.337712 
619.154907 87.934059 2861.695557 0.346901 0.872600 -0.343844 
616.243835 89.315865 2862.253418 0.353198 0.869999 -0.344024 
619.530396 88.917892 2864.512695 0.347089 0.870015 -0.350147 
618.487244 89.198830 2864.178467 0.347089 0.870015 -0.350147 
638.229736 72.574028 2832.947266 -0.540497 0.837128 -0.084141 
638.277588 72.907768 2835.977051 -0.427011 0.901772 -0.066848 
637.807007 72.824966 2839.086426 -0.202054 0.944292 -0.259783 
642.011353 75.916382 2838.312500 -0.579857 0.807711 -0.106624 
647.812561 79.375427 2834.095215 -0.545277 0.833023 -0.093517 
648.459290 79.663406 2832.898438 -0.545129 0.832795 -0.096368 
650.261353 81.065178 2834.814941 -0.545129 0.832795 -0.096368 
646.421997 78.800056 2837.071289 -0.555249 0.826384 -0.093743 
636.130981 73.585945 2843.501221 0.344629 0.879031 -0.329447 
641.909851 76.325577 2842.229492 -0.564238 0.819523 -0.100083 
635.762634 74.896225 2846.809814 0.285024 0.890887 -0.353669 
645.733521 78.989418 2842.715820 -0.556576 0.820914 -0.127763 
644.421997 78.160873 2843.098877 -0.556576 0.820914 -0.127763 
651.280518 83.093712 2846.338379 -0.546437 0.831911 -0.096600 
657.272583 99.706978 2930.684814 0.146458 0.874399 -0.462576 
661.441284 99.714355 2930.595947 -0.079049 0.952479 -0.294167 
605.179016 221.587631 2604.330078 -0.303355 0.538416 0.786183 
603.848389 221.128937 2604.192383 -0.303355 0.538416 0.786183 
605.398254 218.023392 2606.870850 -0.307236 0.542837 0.781622 
604.217407 216.613113 2607.450195 -0.300182 0.544775 0.783014 
610.457458 219.097534 2608.017090 -0.292460 0.526428 0.798336 
612.894165 221.968658 2607.015625 -0.303114 0.534814 0.788731 
612.466003 220.477829 2607.842529 -0.303628 0.532542 0.790069 
615.305054 220.493057 2608.937500 -0.306770 0.526119 0.793152 
605.370728 223.356705 2603.195801 -0.300930 0.546132 0.781781 
608.033203 222.798569 2604.616211 -0.299952 0.541183 0.785589 
610.625854 225.561035 2603.694092 -0.289562 0.536401 0.792734 
608.845337 226.623535 2602.290527 -0.308002 0.544191 0.780379 
611.467651 227.981964 2602.386719 -0.289562 0.536401 0.792734 
611.906250 227.256027 2603.021240 -0.289562 0.536401 0.792734 
614.772339 226.318909 2604.691650 -0.290021 0.543591 0.787653 
614.893433 225.848053 2605.048096 -0.293651 0.544445 0.785715 
616.698792 224.375534 2606.821289 -0.307692 0.550020 0.776405 
605.931396 189.722687 2626.306152 -0.310938 0.534175 0.786114 
604.195435 186.297760 2627.902344 -0.307028 0.529743 0.790637 
606.646484 187.378616 2628.143555 -0.303120 0.525302 0.795095 
610.889343 189.552307 2628.379639 -0.302356 0.523979 0.796258 
606.918579 185.711334 2629.355713 -0.299732 0.528099 0.794527 
606.035156 184.418564 2629.877441 -0.302614 0.527595 0.793769 
609.664734 186.006821 2630.177002 -0.313824 0.524101 0.791728 
608.009705 186.101959 2629.496582 -0.299732 0.528099 0.794527 
613.511597 185.667175 2631.997314 -0.315555 0.549418 0.773670 
614.619324 185.540894 2632.534668 -0.311891 0.548608 0.775728 
614.463989 187.600815 2631.012695 -0.311891 0.548608 0.775728 
609.138916 190.277161 2627.188965 -0.314063 0.537255 0.782766 
608.920898 192.703232 2625.429932 -0.307526 0.536976 0.785547 
610.710938 190.325302 2627.783203 -0.311184 0.537791 0.783547 
612.424072 192.642593 2626.865723 -0.311184 0.537791 0.783547 
617.645691 192.316025 2629.058838 -0.351032 0.492086 0.796635 
614.317505 195.872498 2625.409912 -0.310408 0.536448 0.784774 
619.052979 196.630356 2626.760986 -0.310938 0.534175 0.786114 
616.279785 194.554184 2627.072510 -0.306257 0.528412 0.791825 
618.859497 190.944458 2630.442139 -0.299717 0.537587 0.788144 
605.210449 213.106232 2610.228027 -0.299717 0.537587 0.788144 
606.315491 210.423309 2612.471436 -0.307526 0.536976 0.785547 
606.556824 212.586517 2611.074951 -0.292691 0.539501 0.789475 
610.611084 207.392212 2616.198242 -0.335059 0.517818 0.787147 
609.964783 209.532516 2614.516357 -0.300227 0.535326 0.789487 
614.228088 211.023315 2615.077393 -0.293424 0.540851 0.788278 
616.803894 213.979324 2614.023682 -0.304578 0.546965 0.779783 
617.678223 212.626495 2615.281250 -0.300467 0.538933 0.786938 
603.828979 199.196716 2619.054443 -0.315568 0.509032 0.800814 
607.488037 198.449173 2620.977539 -0.304114 0.539763 0.784965 
607.745361 198.934326 2620.770996 -0.309646 0.525604 0.792376 
813.487915 183.890625 2770.768799 -0.694908 0.656391 -0.293691 
607.352905 202.338043 2618.418701 -0.303377 0.528924 0.792592 
813.340637 182.882889 2769.092285 -0.704154 0.679283 -0.206738 
610.447998 205.828583 2617.157471 -0.335059 0.517818 0.787147 
610.243958 198.177994 2622.246582 -0.307028 0.529743 0.790637 
614.291992 204.353592 2619.661377 -0.311661 0.545007 0.778354 
614.499695 200.284180 2622.512451 -0.310159 0.532838 0.787328 
615.449158 206.203369 2618.832031 -0.311661 0.545007 0.778354 
617.483032 207.151520 2618.990234 -0.311661 0.545007 0.778354 
617.922913 206.862305 2619.365967 -0.311661 0.545007 0.778354 
619.402954 207.320206 2619.638916 -0.310650 0.540053 0.782201 
620.936218 155.503937 2654.614990 -0.355792 0.513564 0.780810 
622.419678 157.118576 2654.223877 -0.362513 0.497852 0.787863 
621.381958 154.968903 2655.171143 -0.371873 0.521272 0.768105 
626.909912 157.130432 2656.291992 -0.270498 0.577379 0.770366 
620.376526 160.871094 2651.166504 -0.322294 0.503287 0.801766 
622.488892 164.631409 2649.660645 -0.312485 0.515521 0.797867 
627.154480 164.662903 2651.452637 -0.303874 0.536155 0.787527 
623.406372 159.545944 2653.214111 -0.344653 0.471714 0.811603 
624.829834 160.243805 2653.422852 -0.353317 0.478017 0.804156 
628.566589 164.017471 2652.443848 -0.299476 0.533986 0.790679 
629.285645 165.670654 2651.586914 -0.299476 0.533986 0.790679 
630.813660 164.300766 2653.086914 -0.296342 0.530881 0.793944 
630.100159 161.984268 2654.374268 -0.291973 0.528708 0.797007 
631.691162 161.164978 2655.483398 -0.299732 0.528099 0.794527 
630.573853 163.565598 2653.487549 -0.296342 0.530881 0.793944 
623.066711 143.118225 2663.947266 -0.309381 0.521981 0.794871 
626.588684 146.617737 2663.007324 -0.310163 0.523300 0.793698 
630.923279 148.104630 2663.740723 -0.316692 0.523575 0.790933 
623.262329 137.421890 2667.789795 -0.300467 0.538933 0.786938 
624.625427 137.218552 2668.450684 -0.300467 0.538933 0.786938 
620.558716 138.908203 2665.734863 -0.313824 0.524101 0.791728 
623.876038 142.062363 2664.957031 -0.313824 0.524101 0.791728 
629.074402 135.101700 2671.533936 -0.309381 0.521981 0.794871 
632.886658 136.827789 2671.900146 -0.313277 0.516828 0.796710 
631.172424 139.119003 2669.744385 -0.313277 0.516828 0.796710 
631.018921 143.975784 2666.530518 -0.310408 0.536448 0.784774 
629.842468 144.414230 2665.740967 -0.320355 0.524362 0.788934 
631.272644 145.405884 2665.652588 -0.313824 0.524101 0.791728 
634.396362 145.106781 2667.087402 -0.306770 0.526119 0.793152 
621.002136 125.355042 2674.940186 -0.299732 0.528099 0.794527 
621.111633 119.579376 2678.782715 -0.299732 0.528099 0.794527 
623.124878 122.047920 2677.906006 -0.295838 0.523648 0.798920 
627.349609 121.150078 2680.070801 -0.306257 0.528412 0.791825 
626.504944 120.403725 2680.250977 -0.296093 0.527267 0.796442 
623.422607 122.892212 2677.464111 -0.292460 0.526428 0.798336 
631.378845 122.503014 2680.733154 -0.310427 0.526929 0.791190 
623.788818 128.610474 2673.800781 -0.295347 0.525939 0.797595 
624.423950 126.431503 2675.463379 -0.292709 0.530040 0.795851 
626.602783 126.558495 2676.191895 -0.302093 0.520359 0.798728 
626.787354 130.769119 2673.512207 -0.303377 0.528924 0.792592 
629.328979 130.026062 2674.971924 -0.309893 0.519667 0.796186 
632.498901 132.223679 2674.798828 -0.316692 0.523575 0.790933 
627.115234 119.259781 2681.242676 -0.299982 0.531715 0.792017 
631.283936 118.591446 2683.315674 -0.313560 0.530027 0.787878 
633.068542 119.299789 2683.552979 -0.314088 0.527732 0.789207 
633.963806 124.090149 2680.714600 -0.304801 0.550557 0.777163 
635.079407 107.944473 2691.830566 -0.305734 0.521173 0.796809 
634.844604 103.385696 2694.745117 -0.309893 0.519667 0.796186 
634.885986 102.219810 2695.527100 -0.312202 0.511885 0.800315 
634.873657 110.681366 2689.974121 -0.313824 0.524101 0.791728 
609.480286 168.124588 2642.173828 -0.306257 0.528412 0.791825 
612.308350 167.784149 2643.450195 -0.298948 0.517227 0.801939 
612.744202 168.146790 2643.368896 -0.313033 0.522782 0.792912 
616.953857 168.727783 2644.712158 -0.316958 0.527202 0.788413 
618.724731 169.818359 2644.667236 -0.310159 0.532838 0.787328 
614.354431 170.558060 2642.443359 -0.320355 0.524362 0.788934 
615.563049 172.998917 2641.302979 -0.307028 0.529743 0.790637 
616.704285 171.515869 2642.731689 -0.310427 0.526929 0.791190 
555.897278 117.896690 2871.236084 0.349264 0.863160 -0.364650 
558.050781 118.120956 2873.805420 0.368021 0.844099 -0.389946 
558.724182 118.735764 2875.706543 0.377328 0.852481 -0.361800 
557.951172 119.331627 2876.293213 0.377328 0.852481 -0.361800 
555.723877 120.033043 2875.683594 0.367480 0.854352 -0.367480 
558.950317 119.912277 2878.783203 0.371347 0.861339 -0.346693 
556.039429 120.528107 2877.233398 0.368685 0.862323 -0.347089 
557.962769 120.664566 2879.682373 0.371347 0.861339 -0.346693 
569.053589 116.844505 2881.763184 0.377438 0.861176 -0.340465 
553.090515 123.606903 2881.902588 0.374187 0.863863 -0.337230 
553.067017 124.019012 2882.899170 0.368685 0.862323 -0.347089 
552.535278 124.690552 2884.038086 0.364650 0.863160 -0.349264 
553.884216 125.221931 2886.740723 0.370756 0.863045 -0.343064 
542.828796 129.099426 2884.732910 0.365934 0.868135 -0.335312 
541.403137 129.877090 2885.186523 0.364072 0.864862 -0.345638 
543.625977 128.900345 2885.072510 0.365934 0.868135 -0.335312 
546.003357 128.861557 2887.574463 0.366909 0.867378 -0.336205 
548.306396 126.838730 2884.894775 0.363489 0.866545 -0.342017 
550.983337 126.257736 2886.271240 0.368097 0.864027 -0.343455 
551.561829 126.390678 2887.236084 0.367120 0.864805 -0.342543 
545.556213 129.929047 2889.884521 0.363869 0.867451 -0.339304 
547.036804 130.231613 2892.171631 0.365041 0.864085 -0.346558 
543.011902 131.305176 2890.601074 0.368097 0.864027 -0.343455 
539.969910 132.251907 2889.693604 0.372965 0.867182 -0.329989 
546.162292 130.447479 2891.824707 0.364072 0.864862 -0.345638 
543.801880 132.553482 2894.583984 0.367707 0.863111 -0.346167 
554.000549 126.243660 2889.526611 0.365934 0.868135 -0.335312 
549.792908 129.575577 2893.378174 0.356243 0.869967 -0.340953 
575.544189 107.909554 2865.974365 0.372922 0.858805 -0.351259 
577.402161 108.086739 2868.393311 0.359863 0.868266 -0.341487 
582.139160 105.819603 2867.621338 0.361587 0.863192 -0.352355 
584.634827 103.937325 2865.576904 0.361587 0.863192 -0.352355 
586.838806 103.321953 2866.333008 0.360442 0.866594 -0.345104 
571.760254 112.097206 2872.691406 0.370160 0.864732 -0.339442 
580.459900 109.832474 2875.982666 0.368958 0.868046 -0.332215 
580.550964 110.790909 2878.625244 0.370160 0.864732 -0.339442 
582.825134 109.557877 2877.969482 0.373797 0.862964 -0.339955 
587.209412 107.929672 2878.455322 0.357193 0.869220 -0.341863 
584.253235 109.528763 2879.437500 0.361587 0.863192 -0.352355 
577.239258 110.527855 2874.317383 0.358104 0.873164 -0.330675 
579.323120 110.745140 2877.163330 0.367505 0.865712 -0.339827 
579.436218 111.909203 2880.240723 0.360442 0.866594 -0.345104 
577.913818 112.419785 2879.926270 0.360442 0.866594 -0.345104 
571.922729 113.954086 2877.568604 0.379857 0.862751 -0.333720 
592.507996 134.432846 2950.240234 0.407183 0.815962 -0.410376 
593.832397 134.295776 2951.159668 0.330476 0.796654 -0.506091 
592.736877 136.049088 2953.100098 0.372168 0.765463 -0.524935 
594.355164 136.528244 2954.596924 0.323121 0.766811 -0.554612 
621.582458 117.882332 2938.958740 0.332174 0.888302 -0.317143 
622.012756 117.854225 2939.332520 0.367707 0.863111 -0.346167 
621.912231 119.655670 2943.665527 0.354707 0.867574 -0.348565 
633.742371 116.036240 2946.984863 0.350705 0.868339 -0.350705 
635.196838 116.579048 2949.786133 0.358907 0.864150 -0.352746 
634.313232 118.087601 2952.626221 0.358907 0.864150 -0.352746 
610.467529 125.088669 2945.473145 0.365041 0.864085 -0.346558 
617.270081 122.991951 2947.265381 0.356817 0.868306 -0.344566 
616.997742 123.254761 2947.646729 0.356817 0.868306 -0.344566 
609.608154 126.062569 2946.992188 0.364457 0.865778 -0.342928 
604.206848 129.480469 2950.015625 0.365881 0.840113 -0.400427 
610.853638 126.736130 2950.029053 0.365041 0.864085 -0.346558 
606.574341 129.749039 2953.078369 0.366361 0.857934 -0.360178 
610.699646 128.292206 2953.727783 0.358907 0.864150 -0.352746 
605.664124 130.806351 2954.558594 0.358907 0.864150 -0.352746 
609.422668 130.042099 2956.695312 0.367898 0.855323 -0.364793 
605.439087 133.008865 2959.176514 0.414934 0.795962 -0.440766 
611.026978 130.573883 2959.673340 0.367480 0.854352 -0.367480 
609.847473 131.571854 2960.398926 0.515940 0.755073 -0.404562 
607.408386 133.514755 2960.550537 0.383515 0.540184 -0.749078 
611.964050 127.443321 2952.923828 0.355271 0.865876 -0.352195 
614.883911 126.304123 2953.055908 0.357954 0.864927 -0.351809 
613.120239 128.470383 2956.603516 0.357954 0.864927 -0.351809 
616.200745 127.212189 2956.652832 0.357954 0.864927 -0.351809 
618.819336 126.167374 2956.708252 0.351809 0.864927 -0.357954 
613.306885 128.783997 2957.557617 0.358340 0.865860 -0.349112 
615.937073 127.808662 2957.848877 0.357954 0.864927 -0.351809 
641.541260 106.064659 2930.151367 0.342397 0.867509 -0.360822 
639.419312 107.764664 2932.204834 0.340953 0.869967 -0.356243 
640.909363 107.042114 2931.903564 0.340953 0.869967 -0.356243 
640.148499 108.987099 2935.983887 0.348014 0.869269 -0.351080 
646.249268 103.752571 2929.294189 0.359863 0.868266 -0.341487 
651.687378 103.541420 2934.371338 0.366197 0.860639 -0.353836 
644.216370 107.145988 2935.459229 0.351640 0.867582 -0.351640 
646.748230 106.631104 2936.748535 0.354327 0.866643 -0.351259 
643.038391 109.615440 2940.422607 0.363489 0.866545 -0.342017 
643.798889 108.241737 2937.748779 0.350705 0.868339 -0.350705 
651.544434 106.860191 2942.161377 0.359628 0.859712 -0.362715 
649.811401 107.760117 2942.574951 0.371974 0.867940 -0.329113 
638.701660 111.431000 2940.551025 0.346023 0.865827 -0.361402 
636.001282 113.284325 2942.436768 0.344942 0.869253 -0.354140 
636.910217 113.869545 2944.768311 0.357768 0.867550 -0.345484 
640.704041 111.376282 2942.401611 0.353764 0.868331 -0.347639 
641.926636 111.588547 2944.245117 0.359863 0.868266 -0.341487 
612.020081 52.721073 2767.351562 0.281529 0.880718 -0.380892 
593.233887 250.091034 2579.834229 -0.279813 0.551722 0.785689 
587.780273 251.206650 2577.062256 -0.244407 0.641765 0.726913 
590.648987 250.566833 2578.591553 -0.292691 0.539501 0.789475 
589.833862 247.313538 2580.557617 -0.283426 0.552601 0.783774 
593.510498 246.887375 2582.216797 -0.275727 0.553029 0.786215 
594.965393 249.237762 2581.041992 -0.269609 0.559715 0.783601 
598.219849 252.922287 2579.893799 -0.376831 0.336841 0.862866 
601.209106 254.837952 2580.451172 -0.376831 0.336841 0.862866 
597.678223 246.456589 2583.936768 -0.268551 0.551236 0.789949 
596.976685 255.484344 2578.351074 -0.376831 0.336841 0.862866 
592.008240 230.397995 2592.927734 -0.310707 0.493662 0.812255 
598.817688 231.528717 2595.034912 -0.337544 0.503916 0.795068 
601.445801 235.232941 2593.337891 -0.290158 0.556533 0.778511 
604.427734 238.220886 2592.323730 -0.278908 0.546786 0.789452 
613.642639 243.549088 2592.193359 -0.298345 0.563186 0.770592 
615.314758 245.277176 2591.575684 -0.298345 0.563186 0.770592 
689.248047 99.358093 2771.571777 -0.550412 0.830621 -0.084349 
683.814148 96.234665 2775.020264 -0.545129 0.832795 -0.096368 
688.018311 99.168633 2776.698242 -0.544097 0.832742 -0.102469 
685.291199 97.423203 2777.004883 -0.545129 0.832795 -0.096368 
686.288391 98.300415 2778.853516 -0.544255 0.832985 -0.099612 
687.592224 99.539658 2781.952881 -0.546437 0.831911 -0.096600 
686.381775 98.882751 2783.202637 -0.548455 0.830599 -0.096447 
670.527283 88.965858 2787.505371 -0.538614 0.837365 -0.093360 
674.930420 91.772385 2786.861572 -0.542816 0.834991 -0.090231 
672.315063 90.209259 2788.235107 -0.542954 0.835203 -0.087388 
669.384949 88.428192 2789.232178 -0.538614 0.837365 -0.093360 
671.226196 89.750572 2790.652588 -0.539764 0.836274 -0.096438 
669.400513 88.737099 2791.920898 -0.538467 0.837137 -0.096206 
669.331360 88.769669 2792.564453 -0.539764 0.836274 -0.096438 
672.557495 90.539253 2789.834473 -0.541947 0.835202 -0.093439 
674.687683 92.211487 2792.388184 -0.543973 0.833900 -0.093294 
676.786194 92.797943 2785.303955 -0.541947 0.835202 -0.093439 
675.811340 92.824150 2791.371826 -0.541799 0.834974 -0.096288 
682.477600 97.360077 2792.884766 -0.542816 0.834991 -0.090231 
669.483948 89.120659 2794.630371 -0.539612 0.836039 -0.099289 
668.216980 88.243011 2794.325684 -0.545129 0.832795 -0.096368 
673.271362 91.498032 2794.171631 -0.538467 0.837137 -0.096206 
674.928589 92.851929 2796.880127 -0.537462 0.838440 -0.090294 
670.411255 90.073952 2797.794678 -0.549447 0.830626 -0.090379 
678.989136 95.713142 2798.518311 -0.549769 0.829703 -0.096678 
680.472534 96.562080 2797.385498 -0.540624 0.837326 -0.081308 
700.417297 227.634720 2635.823975 -0.294179 0.564506 0.771227 
716.300049 164.017487 2686.176025 -0.306510 0.532026 0.789304 
718.395569 165.901733 2685.674805 -0.296319 0.540346 0.787542 
719.077698 163.941635 2687.296631 -0.296084 0.536751 0.790084 
719.775757 164.469131 2687.206055 -0.296084 0.536751 0.790084 
721.018982 163.754639 2688.130615 -0.292952 0.533648 0.793346 
722.853149 163.539429 2688.947510 -0.292709 0.530040 0.795851 
721.801636 165.090836 2687.511963 -0.293191 0.537252 0.790822 
716.675110 148.741730 2696.377686 -0.291973 0.528708 0.797007 
718.658020 137.955429 2704.131348 -0.313033 0.522782 0.792912 
717.037537 140.170609 2702.013916 -0.317490 0.524896 0.789737 
717.248047 139.461105 2702.559570 -0.317490 0.524896 0.789737 
717.739380 140.060257 2702.361328 -0.309905 0.529223 0.789862 
721.480713 138.737823 2704.713867 -0.312762 0.519153 0.795399 
717.554443 148.052063 2697.177979 -0.291973 0.528708 0.797007 
719.280823 147.146591 2698.387939 -0.292460 0.526428 0.798336 
718.833069 147.991455 2697.678467 -0.291973 0.528708 0.797007 
723.242126 145.346619 2700.979980 -0.302093 0.520359 0.798728 
724.219604 149.540390 2698.679932 -0.295838 0.523648 0.798920 
726.321045 142.247360 2704.230225 -0.302590 0.518047 0.800042 
701.780334 150.736496 2689.465332 -0.307028 0.529743 0.790637 
703.905579 151.685059 2689.651855 -0.305734 0.521173 0.796809 
708.572083 152.095047 2691.153076 -0.305464 0.517548 0.799272 
708.741943 152.968231 2690.651123 -0.305464 0.517548 0.799272 
715.505798 158.445404 2689.563965 -0.299982 0.531715 0.792017 
705.161743 189.904724 2664.270264 -0.283000 0.545447 0.788922 
700.373962 195.982254 2658.231689 -0.292218 0.532310 0.794516 
701.747620 195.465363 2659.085938 -0.286742 0.559226 0.777847 
707.061157 197.235306 2659.898682 -0.296772 0.547520 0.782399 
703.072998 191.695526 2662.281982 -0.293873 0.548034 0.783133 
707.781067 193.813110 2662.567139 -0.303822 0.545607 0.781029 
710.273010 192.456207 2664.462891 -0.299717 0.537587 0.788144 
713.576538 192.851715 2665.452148 -0.293191 0.537252 0.790822 
709.462097 194.534286 2662.721436 -0.303822 0.545607 0.781029 
702.478882 185.112579 2666.579834 -0.282780 0.541863 0.791467 
702.811829 184.701523 2666.995605 -0.282780 0.541863 0.791467 
707.226074 184.932144 2668.514893 -0.293362 0.550251 0.781769 
703.105469 187.612579 2665.109619 -0.282780 0.541863 0.791467 
704.392151 188.011124 2665.292236 -0.282780 0.541863 0.791467 
710.061157 188.472885 2667.070068 -0.300930 0.546132 0.781781 
712.510254 189.852463 2667.080566 -0.303874 0.536155 0.787527 
714.282776 188.283096 2668.865234 -0.300625 0.551941 0.777808 
709.104187 185.013885 2669.155273 -0.301370 0.553309 0.776547 
713.691406 183.717056 2671.908936 -0.304578 0.546965 0.779783 
712.479675 185.223221 2670.354736 -0.304265 0.552776 0.775797 
711.250488 190.519272 2666.155762 -0.299476 0.533986 0.790679 
713.758118 190.738464 2666.942627 -0.296319 0.540346 0.787542 
694.142395 215.843643 2641.898926 -0.277175 0.568606 0.774507 
696.169678 217.220062 2641.633057 -0.290670 0.554338 0.779885 
